ncols        163
nrows        32
xllcorner    341618.87224
yllcorner    6754539.87337
cellsize     30.000000000000
NODATA_value  -99999
607.67999267578125 612.61895751953125 618.97198486328125 621.42034912109375 622.3272705078125 622.5673828125 623.81439208984375 626.16693115234375 624.21923828125 618.65338134765625 613.64215087890625 610.885009765625 611.820068359375 612.43572998046875 611.533447265625 610.197021484375 613.88311767578125 621.82257080078125 630.59918212890625 637.4180908203125 642.0172119140625 644.7120361328125 646.63848876953125 649.46856689453125 651.30859375 647.4058837890625 645.25848388671875 646.53643798828125 647.45550537109375 648.61761474609375 649.53082275390625 648.6414794921875 646.45062255859375 645.45709228515625 644.34967041015625 643.40155029296875 641.76727294921875 640.4951171875 639.00341796875 637.91448974609375 638.02374267578125 638.48907470703125 635.88116455078125 635.6070556640625 635.61224365234375 635.61749267578125 636.97479248046875 641.20965576171875 644.505615234375 646.75006103515625 647.34246826171875 646.5667724609375 646.41351318359375 647.42437744140625 647.9256591796875 646.92730712890625 643.70367431640625 638.2545166015625 632.92352294921875 632.92138671875 632.919189453125 632.92138671875 632.92352294921875 632.92572021484375 636.24053955078125 639.51934814453125 642.2127685546875 643.7017822265625 645.594482421875 646.03131103515625 644.75885009765625 642.8521728515625 641.59588623046875 639.83416748046875 638.4833984375 636.52337646484375 631.891845703125 629.9903564453125 629.0523681640625 628.8629150390625 632.44647216796875 633.9495849609375 632.38763427734375 630.29595947265625 626.45269775390625 621.47540283203125 618.2333984375 614.46051025390625 609.22625732421875 603.52105712890625 599.465087890625 599.486328125 601.621826171875 603.27679443359375 599.02911376953125 589.8221435546875 579.66253662109375 572.18804931640625 569.2021484375 571.09942626953125 577.72918701171875 588.11407470703125 598.73248291015625 606.0411376953125 607.02508544921875 605.90936279296875 607.045654296875 610.25244140625 612.8306884765625 614.0986328125 615.2908935546875 617.62890625 620.41375732421875 622.388671875 621.5618896484375 619.61016845703125 619.99432373046875 620.2830810546875 620.84039306640625 620.4093017578125 614.547607421875 604.4136962890625 599.5406494140625 599.54278564453125 599.54498291015625 599.5501708984375 600.1749267578125 607.18719482421875 612.9144287109375 619.95501708984375 624.33453369140625 626.7708740234375 628.3887939453125 632.917724609375 636.95782470703125 635.55560302734375 630.74267578125 626.3779296875 624.39202880859375 625.4937744140625 626.823974609375 625.94122314453125 624.9034423828125 625.15228271484375 626.22119140625 625.3841552734375 621.563232421875 619.153076171875 616.87152099609375 613.85791015625 608.911376953125 607.3482666015625 607.05517578125 608.79638671875 611.48138427734375 613.17730712890625 612.2755126953125 607.75445556640625 602.70208740234375 598.73126220703125 595.82000732421875 593.35418701171875 588.53692626953125
600.79205322265625 605.40899658203125 610.00579833984375 611.52813720703125 612.37506103515625 615.53192138671875 616.64556884765625 613.934326171875 611.99957275390625 610.88690185546875 608.28094482421875 607.8797607421875 609.62164306640625 609.986572265625 609.67962646484375 611.094970703125 615.79241943359375 624.1798095703125 632.01458740234375 636.9576416015625 640.59783935546875 643.2926025390625 644.13604736328125 645.2847900390625 647.39788818359375 644.92083740234375 642.03570556640625 642.2913818359375 643.71356201171875 645.875 647.45123291015625 647.19708251953125 645.77777099609375 644.56097412109375 643.30377197265625 641.4022216796875 639.2957763671875 637.72210693359375 636.5869140625 635.45172119140625 635.438720703125 636.3995361328125 635.599609375 635.6048583984375 635.610107421875 635.6153564453125 637.77130126953125 641.33819580078125 643.71197509765625 645.0299072265625 644.77301025390625 643.68060302734375 643.70611572265625 646.040771484375 649.1141357421875 648.94525146484375 645.79644775390625 640.26593017578125 633.16082763671875 632.9161376953125 632.9139404296875 632.9161376953125 632.91827392578125 632.92352294921875 635.8094482421875 638.9974365234375 642.2322998046875 643.75457763671875 645.65185546875 646.891357421875 644.915283203125 643.38482666015625 640.74810791015625 637.299560546875 634.82904052734375 632.55706787109375 628.73388671875 625.0201416015625 624.34466552734375 625.82550048828125 628.15484619140625 630.32916259765625 628.67529296875 626.8023681640625 621.58349609375 615.4698486328125 613.465087890625 611.8245849609375 607.22271728515625 602.52813720703125 597.9107666015625 597.35821533203125 598.17401123046875 599.7911376953125 596.37908935546875 587.91082763671875 576.113525390625 567.652587890625 565.90582275390625 567.9866943359375 576.051025390625 588.53717041015625 599.74774169921875 605.47442626953125 605.66693115234375 602.18145751953125 601.70623779296875 605.05999755859375 608.7662353515625 611.69097900390625 613.3292236328125 615.26104736328125 617.1109619140625 618.25946044921875 616.749267578125 614.26129150390625 616.1883544921875 618.161865234375 618.41241455078125 617.21533203125 611.32672119140625 603.7410888671875 599.535400390625 599.53753662109375 599.54278564453125 604.07244873046875 609.59234619140625 611.08111572265625 615.21087646484375 620.96002197265625 625.04864501953125 626.07977294921875 626.29376220703125 627.852783203125 630.13787841796875 630.3392333984375 626.89031982421875 624.54034423828125 624.38677978515625 625.468017578125 626.003173828125 624.9088134765625 624.3658447265625 624.360595703125 624.35791015625 623.2431640625 620.1368408203125 618.06732177734375 617.997314453125 616.7535400390625 613.733642578125 610.90087890625 611.61163330078125 613.64215087890625 617.57513427734375 619.30230712890625 615.88983154296875 612.20703125 607.2144775390625 602.1251220703125 600.0347900390625 597.6531982421875 592.46636962890625
593.92236328125 600.24041748046875 604.25244140625 603.322265625 604.598388671875 608.5748291015625 609.79107666015625 604.60400390625 599.817626953125 599.5125732421875 600.367919921875 601.4136962890625 603.92742919921875 604.99078369140625 606.3720703125 611.75067138671875 617.7333984375 624.16693115234375 629.56109619140625 634.64703369140625 638.956298828125 642.10369873046875 642.73699951171875 643.011474609375 643.24688720703125 641.70074462890625 639.36541748046875 638.5089111328125 640.6319580078125 643.88714599609375 645.77325439453125 645.31353759765625 644.5771484375 644.0699462890625 641.78314208984375 638.79608154296875 636.07855224609375 633.98162841796875 632.4400634765625 631.6341552734375 633.35321044921875 635.59222412109375 636.01220703125 635.6070556640625 635.61224365234375 636.98760986328125 639.0352783203125 641.071044921875 643.2451171875 644.1566162109375 643.46270751953125 643.46795654296875 644.0263671875 647.40582275390625 651.4281005859375 652.9315185546875 649.54742431640625 643.1634521484375 635.36859130859375 632.910888671875 632.90875244140625 632.910888671875 634.59381103515625 635.41668701171875 638.07989501953125 641.8682861328125 645.1292724609375 646.0067138671875 647.57818603515625 647.99310302734375 644.7515869140625 641.25286865234375 637.5250244140625 633.15533447265625 629.8746337890625 628.2413330078125 625.62835693359375 621.59173583984375 620.75579833984375 623.51824951171875 624.43560791015625 624.31634521484375 622.5908203125 620.436767578125 614.3961181640625 608.8826904296875 607.527099609375 607.35693359375 605.47735595703125 601.59686279296875 598.95074462890625 597.35296630859375 597.6683349609375 596.98760986328125 592.5079345703125 584.74530029296875 572.52716064453125 563.41436767578125 563.1627197265625 565.76470947265625 573.366943359375 584.63958740234375 595.3707275390625 601.40533447265625 602.53338623046875 598.43670654296875 597.836181640625 601.9130859375 608.38201904296875 611.95477294921875 613.36492919921875 614.4466552734375 614.86004638671875 614.59466552734375 611.96514892578125 607.9251708984375 610.78338623046875 613.3341064453125 613.21563720703125 610.03961181640625 603.89788818359375 600.252197265625 599.5301513671875 607.1737060546875 614.9189453125 619.85919189453125 620.03887939453125 619.49786376953125 621.223388671875 624.20098876953125 627.06072998046875 628.3927001953125 626.93798828125 625.15045166015625 624.81549072265625 624.86322021484375 624.39508056640625 624.389892578125 624.3846435546875 624.37939453125 624.3741455078125 624.368896484375 624.36370849609375 624.35845947265625 624.35321044921875 624.188232421875 623.15020751953125 622.0072021484375 620.6561279296875 620.44921875 619.41748046875 616.999267578125 618.1705322265625 617.0576171875 619.04412841796875 620.90826416015625 617.7484130859375 613.802490234375 611.51727294921875 606.97357177734375 604.406982421875 600.3768310546875 594.6488037109375
588.8055419921875 593.62835693359375 595.8599853515625 596.17803955078125 598.44720458984375 600.65972900390625 599.48675537109375 593.38507080078125 587.560791015625 588.56658935546875 590.20166015625 592.3013916015625 596.14678955078125 598.23736572265625 601.19140625 609.078125 616.7232666015625 621.4781494140625 624.9510498046875 630.7230224609375 637.11334228515625 641.34246826171875 641.84588623046875 640.74383544921875 639.210205078125 637.3729248046875 636.1514892578125 636.1844482421875 639.4139404296875 643.55938720703125 645.76617431640625 644.72039794921875 644.37738037109375 643.65179443359375 639.8870849609375 635.18988037109375 631.64105224609375 629.592041015625 628.982666015625 630.0606689453125 632.8016357421875 635.95062255859375 637.48223876953125 637.09429931640625 638.1910400390625 639.2261962890625 639.8087158203125 640.5928955078125 642.38623046875 643.26141357421875 643.624267578125 644.409423828125 646.4068603515625 649.30218505859375 653.435302734375 654.6593017578125 650.2037353515625 644.1053466796875 638.85687255859375 634.443359375 632.90350341796875 635.56591796875 637.73284912109375 637.815185546875 639.06634521484375 642.83770751953125 646.09832763671875 648.27227783203125 649.73675537109375 649.13458251953125 643.8438720703125 638.97808837890625 633.72320556640625 630.08740234375 628.41595458984375 626.7232666015625 623.13360595703125 619.57293701171875 618.8880615234375 620.63336181640625 620.3250732421875 619.0565185546875 617.97625732421875 616.07403564453125 611.35772705078125 606.0662841796875 603.56524658203125 602.18682861328125 601.17681884765625 598.184326171875 597.3455810546875 597.52545166015625 597.99310302734375 596.0047607421875 587.9805908203125 578.9432373046875 567.70953369140625 563.1552734375 563.157470703125 566.60076904296875 571.961181640625 578.6082763671875 586.8187255859375 594.05133056640625 596.8863525390625 596.167236328125 598.0155029296875 604.2606201171875 611.84112548828125 615.0472412109375 615.367919921875 614.38116455078125 613.161376953125 610.65423583984375 606.17364501953125 602.1563720703125 603.78240966796875 606.63323974609375 606.2208251953125 602.80438232421875 597.45062255859375 596.98358154296875 603.9757080078125 616.03131103515625 624.25421142578125 629.33343505859375 629.9232177734375 629.72259521484375 629.18218994140625 629.2735595703125 630.08380126953125 631.27484130859375 629.5794677734375 625.64447021484375 624.40771484375 624.40252685546875 624.39727783203125 624.39202880859375 624.38677978515625 624.38153076171875 624.3763427734375 624.37109375 624.3658447265625 624.360595703125 624.6636962890625 626.020751953125 626.0733642578125 626.136474609375 625.52630615234375 625.32110595703125 624.309326171875 622.5233154296875 623.2523193359375 621.7139892578125 620.52471923828125 620.1754150390625 616.93408203125 613.037353515625 611.8656005859375 612.479736328125 607.77716064453125 602.73431396484375 596.01239013671875
584.3170166015625 586.86541748046875 586.48095703125 586.1466064453125 588.52197265625 589.4434814453125 588.59844970703125 583.91827392578125 579.99017333984375 579.95428466796875 581.22137451171875 584.200927734375 588.975341796875 593.15765380859375 600.71697998046875 610.3057861328125 616.11053466796875 618.37371826171875 620.9876708984375 626.85198974609375 633.74212646484375 638.52154541015625 639.5797119140625 637.64141845703125 635.23162841796875 633.5528564453125 633.86334228515625 636.156005859375 639.5001220703125 642.9049072265625 644.86163330078125 644.68975830078125 644.5054931640625 642.45452880859375 637.57537841796875 632.32452392578125 628.281982421875 626.40869140625 628.06707763671875 631.54638671875 634.67822265625 638.00433349609375 640.1944580078125 639.97119140625 640.2462158203125 640 639.5263671875 639.5316162109375 641.06561279296875 642.74200439453125 643.73358154296875 646.05511474609375 649.09698486328125 650.4324951171875 654.36126708984375 654.927490234375 649.91729736328125 644.3372802734375 641.32867431640625 638.20458984375 632.89825439453125 633.56268310546875 637.26727294921875 638 638.75848388671875 641.90966796875 645.68988037109375 647.6810302734375 648.06134033203125 646.38128662109375 641.9481201171875 636.935302734375 630.91571044921875 627.69329833984375 627.02691650390625 625.23052978515625 621.23699951171875 618.881103515625 618.8758544921875 618.87060546875 617.75634765625 615.81964111328125 615.056396484375 614.3004150390625 611.491943359375 608.8192138671875 606.10528564453125 600.70361328125 596.5977783203125 592.8836669921875 592.93927001953125 595.03167724609375 596.53668212890625 594.5986328125 583.76092529296875 572.28045654296875 563.14788818359375 563.1500244140625 563.339111328125 569.02362060546875 573.17535400390625 575.86187744140625 580.31982421875 587.1324462890625 592.89337158203125 597.35260009765625 603.2178955078125 610.68292236328125 616.71600341796875 618.32586669921875 616.7933349609375 613.4051513671875 610.1103515625 606.5328369140625 600.78955078125 596.406005859375 594.91943359375 596.0126953125 595.1932373046875 592.825927734375 592.56903076171875 597.66668701171875 607.7652587890625 618.68646240234375 628.27587890625 634.247314453125 635.75054931640625 635.1812744140625 633.2825927734375 631.4931640625 630.933837890625 631.78509521484375 630.14801025390625 626.76031494140625 625.64459228515625 624.97796630859375 624.3994140625 624.39422607421875 624.38897705078125 624.38372802734375 624.37847900390625 624.37322998046875 624.3680419921875 624.3658447265625 625.6109619140625 627.80316162109375 628.99652099609375 629.62506103515625 630.0684814453125 630.1466064453125 628.33892822265625 626.4600830078125 627.52276611328125 624.578369140625 620.94921875 618.1549072265625 613.54888916015625 609.7283935546875 609.72320556640625 611.45343017578125 609.7083740234375 604.134521484375 596.70587158203125
578.53131103515625 580.8660888671875 579.028076171875 577.80126953125 577.81561279296875 577.99139404296875 577.82672119140625 575.35113525390625 573.769287109375 573.1551513671875 574.401123046875 577.95880126953125 585.04205322265625 592.64678955078125 600.82135009765625 608.646240234375 612.942626953125 614.563232421875 616.935302734375 623.57757568359375 629.923095703125 633.47015380859375 634.56475830078125 633.43572998046875 631.26702880859375 629.41290283203125 632.00494384765625 636.29949951171875 639.245361328125 641.24456787109375 642.87274169921875 643.88946533203125 643.3670654296875 639.8717041015625 635.2298583984375 630.5206298828125 627.01715087890625 626.4034423828125 629.7664794921875 635.39825439453125 639.13055419921875 641.2197265625 642.92230224609375 642.244873046875 640.94403076171875 640.63433837890625 640.1895751953125 639.53375244140625 640.90582275390625 642.625 644.2252197265625 647.7440185546875 651.28271484375 653.3482666015625 655.81756591796875 655.469482421875 650.60723876953125 646.40557861328125 644.158447265625 639.494873046875 633.070068359375 631.60113525390625 635.43988037109375 636.47650146484375 638.12445068359375 641.38165283203125 643.72283935546875 644.26922607421875 644.24310302734375 643.3233642578125 641.88214111328125 637.8272705078125 631.47503662109375 629.66571044921875 627.68341064453125 623.87677001953125 619.55059814453125 618.88323974609375 618.87799072265625 619.1824951171875 618.85504150390625 616.690673828125 615.566162109375 615.80718994140625 615.4539794921875 614.4110107421875 612.13787841796875 604.86212158203125 596.15765380859375 589.4111328125 588.823974609375 589.56890869140625 590.86669921875 589.70672607421875 579.1844482421875 567.91278076171875 563.14263916015625 563.14483642578125 563.80584716796875 571.88653564453125 576.834716796875 579.10540771484375 581.32598876953125 586.0379638671875 593.43194580078125 600.75689697265625 608.97802734375 616.06610107421875 619.48675537109375 618.9554443359375 616.34588623046875 612.2115478515625 608.1640625 603.08770751953125 597.1234130859375 592.216552734375 588.7158203125 585.94915771484375 584.67340087890625 585.07452392578125 591.1627197265625 602.01605224609375 613.24993896484375 622.93463134765625 631.87664794921875 636.7886962890625 637.99847412109375 636.21917724609375 633.67138671875 631.08953857421875 630.9390869140625 631.17425537109375 629.453125 627.82958984375 627.79541015625 628.87603759765625 629.48846435546875 628.5576171875 628.2030029296875 627.60009765625 627.44482421875 627.59832763671875 626.68524169921875 625.6839599609375 625.6129150390625 627.41796875 628.994873046875 631.1640625 632.68756103515625 633.8096923828125 632.2117919921875 628.9871826171875 627.26263427734375 623.17486572265625 618.83526611328125 615.57147216796875 610.90069580078125 609.72625732421875 609.72100830078125 609.71575927734375 611.519287109375 606.99688720703125 599.05645751953125
570.1405029296875 571.15460205078125 570.58319091796875 569.20269775390625 569.60894775390625 568.90411376953125 568.54156494140625 568.263916015625 566.494384765625 567.0740966796875 570.025390625 576.1826171875 584.9515380859375 591.249267578125 596.57568359375 601.21990966796875 605.55035400390625 608.7525634765625 612.501953125 620.7120361328125 625.7127685546875 627.11175537109375 627.28741455078125 626.9923095703125 625.11688232421875 624.408447265625 628.174072265625 633.88623046875 637.215087890625 639.54449462890625 641.5999755859375 642.576904296875 641.26055908203125 637.05059814453125 632.86151123046875 628.38238525390625 626.39605712890625 626.79864501953125 632.05987548828125 640.4794921875 643.66064453125 643.19903564453125 643.34356689453125 642.98974609375 641.532958984375 641.2801513671875 642.120849609375 641.9056396484375 642.6434326171875 643.53045654296875 644.61224365234375 648.76373291015625 653.09844970703125 654.88604736328125 656.06414794921875 655.17901611328125 651.1881103515625 648.124267578125 645.84429931640625 639.9490966796875 633.1485595703125 631.16558837890625 632.76507568359375 634.95654296875 638.01129150390625 640.919677734375 642.64093017578125 643.09967041015625 643.08642578125 643.01361083984375 642.83502197265625 640.42242431640625 637.065673828125 633.548583984375 629.67132568359375 625.88153076171875 622.21563720703125 621.173583984375 621.19293212890625 622.04486083984375 620.89105224609375 618.64373779296875 617.0645751953125 617.444091796875 618 617.64703369140625 614.46942138671875 607.27764892578125 597.2662353515625 587.63568115234375 583.6884765625 583.34454345703125 583.7874755859375 581.2802734375 573.27276611328125 565.96807861328125 563.13739013671875 563.13958740234375 567.70489501953125 576.53570556640625 582.5892333984375 586.072998046875 587.46563720703125 590.850830078125 597.2933349609375 604.8824462890625 612.68414306640625 618.705322265625 619.7294921875 618.26806640625 615.83282470703125 613.06414794921875 610.354736328125 605.84228515625 597.4052734375 590.4599609375 585.3466796875 580.581787109375 580.583984375 583.34228515625 593.9398193359375 606.97784423828125 617.73382568359375 625.62860107421875 632.9547119140625 636.7039794921875 637.9459228515625 635.98236083984375 633.20745849609375 631.68426513671875 631.6466064453125 631.748779296875 630.7032470703125 630.4796142578125 632.43841552734375 635.1881103515625 636.322021484375 634.52630615234375 631.7581787109375 630.61236572265625 630.60418701171875 629.87115478515625 627.87615966796875 626.709716796875 625.697021484375 625.62030029296875 627.99200439453125 631.15985107421875 633.9912109375 635.74560546875 634.21258544921875 629.844482421875 625.73828125 619.39410400390625 614.6658935546875 611.29437255859375 609.80645751953125 609.7283935546875 609.72320556640625 609.72100830078125 611.68487548828125 609.833984375 603.94073486328125
565.2554931640625 565.71783447265625 564.5379638671875 563.8409423828125 563.80230712890625 563.73602294921875 563.66973876953125 561.8902587890625 561.7335205078125 564.45458984375 570.6536865234375 579.1251220703125 584.55963134765625 587.67474365234375 589.94134521484375 593.4112548828125 597.701416015625 603.2904052734375 608.16656494140625 615.97467041015625 619.9212646484375 620.5235595703125 620.214599609375 620.44879150390625 619.402587890625 620.24505615234375 624.4066162109375 629.788330078125 633.8294677734375 637.0760498046875 640.01983642578125 641.205078125 639.41094970703125 635.46356201171875 630.221435546875 626.0428466796875 624.6087646484375 625.62109375 632.4310302734375 641.97833251953125 644.67987060546875 643.093017578125 642.88262939453125 643.4656982421875 642.475830078125 641.89056396484375 643 643.2486572265625 644.12615966796875 644.6361083984375 645.79443359375 649.22723388671875 653.0059814453125 655.0927734375 656 655.0452880859375 651.64678955078125 648.85516357421875 646.18621826171875 640.09967041015625 634.47100830078125 631.221923828125 630.41473388671875 632.40850830078125 636.57275390625 640.3465576171875 642.51495361328125 644.06781005859375 645.4027099609375 645.70367431640625 644.912353515625 644.29852294921875 640.6197509765625 635.58917236328125 631.2476806640625 628.42999267578125 627.3525390625 626.33929443359375 625.320068359375 625.0606689453125 623.609130859375 620.2650146484375 617.54144287109375 617.1331787109375 617.5469970703125 614.80450439453125 610.42584228515625 606.276611328125 598.6650390625 589.6368408203125 583.22943115234375 580.99530029296875 579.7139892578125 576.66552734375 570.75164794921875 564.27410888671875 563.1322021484375 563.13433837890625 570.5184326171875 580.4373779296875 587.7939453125 593.2701416015625 595.58636474609375 598.44342041015625 602.475830078125 607.7249755859375 613.70758056640625 618.3521728515625 619.013671875 618.1671142578125 616.5478515625 614.91412353515625 613.19256591796875 608.85601806640625 597.95684814453125 589.1251220703125 582.94403076171875 580.57659912109375 580.5787353515625 586.0032958984375 599.37762451171875 611.7327880859375 620.44573974609375 625.7027587890625 630.5272216796875 635.0601806640625 636.41717529296875 634.5660400390625 632.027587890625 631.69036865234375 631.53790283203125 630.73712158203125 630.92523193359375 634.098388671875 638.11590576171875 641.42022705078125 643.15557861328125 640.0994873046875 634.6639404296875 631.56927490234375 630.3663330078125 630.02197265625 628.8448486328125 627.69696044921875 626.36334228515625 625.62554931640625 626.5296630859375 630.854736328125 634.93609619140625 635.99072265625 634.2926025390625 630.6820068359375 624.46868896484375 616.839111328125 612.09423828125 609.7410888671875 609.73583984375 609.7305908203125 609.7283935546875 610.2847900390625 611.51544189453125 611.37420654296875 609.53076171875
564.6708984375 562.017578125 558.348876953125 557.9188232421875 558.93206787109375 558.8736572265625 558.79791259765625 557.0909423828125 557.0413818359375 561.4217529296875 570.46533203125 577.36376953125 581.921142578125 584.74188232421875 587.777099609375 590.46728515625 594.39520263671875 600.15081787109375 605.62109375 610.09661865234375 612.88055419921875 613.90374755859375 615.09765625 616.39794921875 616.93280029296875 618.9638671875 622.91485595703125 628.3453369140625 631.9085693359375 634.3265380859375 637.360107421875 639.09796142578125 637.89080810546875 634.4481201171875 628.04107666015625 623.673583984375 621.77239990234375 623.432373046875 629.95367431640625 638.270751953125 641.8291015625 640.97235107421875 642.01580810546875 642.8634033203125 641.90093994140625 641.7601318359375 643.17083740234375 643.7481689453125 644.19744873046875 644.7470703125 645.93743896484375 648.19818115234375 650.7911376953125 653.0572509765625 654.1116943359375 654.12567138671875 651.79815673828125 649.36334228515625 646.5235595703125 641.21209716796875 635.7911376953125 632.7384033203125 630.40948486328125 630.722900390625 634.067626953125 638.57415771484375 641.24969482421875 643.852783203125 646.88763427734375 648.44134521484375 647.753173828125 646.4527587890625 642.521484375 636.6614990234375 633.0694580078125 632.3275146484375 633.406982421875 633.17291259765625 631.3802490234375 628.248779296875 624.50286865234375 620.01416015625 615.888427734375 613.81640625 613.14849853515625 608.980224609375 605.28826904296875 603.2403564453125 600.82177734375 593.9232177734375 587.18231201171875 581.4066162109375 578.332763671875 576.15509033203125 571.51837158203125 564.2486572265625 563.126953125 563.12908935546875 570.22723388671875 580.07147216796875 590.77276611328125 599.6053466796875 603.403564453125 604.17352294921875 605.29071044921875 606.697509765625 610.1170654296875 614.873046875 615.7403564453125 616.38470458984375 617.0208740234375 615.41552734375 611.1810302734375 602.9508056640625 593.65911865234375 587.6375732421875 582.30206298828125 580.57135009765625 582.02911376953125 591.03094482421875 604.14422607421875 615.0277099609375 621.68096923828125 624.49566650390625 627.27227783203125 631.84967041015625 633.21881103515625 631.36700439453125 628.6278076171875 628.18756103515625 628.37725830078125 627.4764404296875 629.16424560546875 635.5540771484375 640.48272705078125 645.03778076171875 646.66082763671875 642.83642578125 637.27203369140625 633.0882568359375 629.8697509765625 629.169921875 628.93829345703125 627.97528076171875 627.80010986328125 627.64935302734375 628.6541748046875 632.08624267578125 635.87188720703125 636.23858642578125 633.52081298828125 629.75384521484375 622.79632568359375 615.9161376953125 612.26837158203125 610.14813232421875 609.73797607421875 609.73583984375 609.733642578125 614.44866943359375 616.68194580078125 619.22509765625 620.47796630859375
562.6552734375 558.6387939453125 553.48626708984375 552.5841064453125 554.14447021484375 554.35699462890625 553.970458984375 553.11419677734375 554.08056640625 558.8953857421875 565.7401123046875 573.12091064453125 578.2242431640625 581.9818115234375 586.492919921875 590.3197021484375 594.48974609375 599.6551513671875 603.65106201171875 605.520263671875 606.92681884765625 609.52435302734375 612.6317138671875 614.60601806640625 615.92144775390625 618.724365234375 623.53546142578125 628.36456298828125 630.7742919921875 631.46124267578125 633.90960693359375 635.82989501953125 635.36187744140625 632.34619140625 626.17919921875 620.52752685546875 618.8712158203125 620.2991943359375 625.2708740234375 632.15924072265625 636.37030029296875 637.0992431640625 638.93206787109375 639.47357177734375 638.55023193359375 640.19195556640625 644.29931640625 645.59393310546875 644.298828125 644.57257080078125 645.66802978515625 647.06024169921875 648.5692138671875 650.73382568359375 651.766357421875 651.90887451171875 650.482177734375 648.13525390625 646.4998779296875 642.8314208984375 639.30096435546875 636.2996826171875 632.10345458984375 630.402099609375 631.4552001953125 635.3057861328125 638.94305419921875 642.5870361328125 646.20245361328125 648.5841064453125 649.61700439453125 648.36273193359375 643.82537841796875 638.04248046875 634.29888916015625 635.28314208984375 636.9747314453125 638.4493408203125 638.01068115234375 632.46868896484375 623.64544677734375 617.9365234375 613.06439208984375 610.93560791015625 608.87603759765625 605.198974609375 602.74462890625 602.03778076171875 600.19476318359375 597.98602294921875 590.61688232421875 583.7061767578125 579.3607177734375 576.6468505859375 571.5545654296875 564.68896484375 563.1217041015625 565.34454345703125 570.72100830078125 581.00390625 594.099365234375 604.33355712890625 608.66192626953125 608.4124755859375 606.7564697265625 605.52496337890625 606.01678466796875 608.63165283203125 609.6627197265625 611.69268798828125 615.4373779296875 613.97900390625 606.4122314453125 595.7760009765625 587.92022705078125 584.33966064453125 580.898681640625 580.56610107421875 586.82769775390625 597.082275390625 608.09197998046875 616.57037353515625 621.8590087890625 623.35174560546875 625.4119873046875 628.93585205078125 629.03955078125 626.060791015625 622.98114013671875 622.65740966796875 623.45989990234375 623.88824462890625 627.51092529296875 634.93634033203125 640.05682373046875 645.02252197265625 646.3182373046875 642.51812744140625 637.85791015625 634.94873046875 632.1943359375 629.42987060546875 629.74322509765625 629.6619873046875 629.6884765625 630.31597900390625 631.986572265625 633.8603515625 635.6649169921875 634.6904296875 632.43389892578125 629.75604248046875 622.99951171875 617.17156982421875 614.93707275390625 614.9512939453125 613.92401123046875 611.18218994140625 613.07318115234375 617.46356201171875 623.11663818359375 627.48162841796875 629.12152099609375
556.96246337890625 552.5272216796875 548.3233642578125 548.2723388671875 550.20989990234375 551.69195556640625 552.021728515625 551.1810302734375 551.26177978515625 556.8963623046875 564.18377685546875 572.5784912109375 576.8345947265625 580.18218994140625 585.7288818359375 590.95709228515625 595.411376953125 597.96112060546875 599.97625732421875 601.65087890625 603.116455078125 605.167724609375 607.27252197265625 609.48089599609375 611.97735595703125 615.43798828125 620.318359375 623.3131103515625 625.76641845703125 627.348388671875 629.67535400390625 631.2655029296875 631.23529052734375 628.21917724609375 622.72705078125 616.753173828125 615.06573486328125 615.90814208984375 620.222900390625 625.92657470703125 630.70501708984375 633.13067626953125 634.3953857421875 635.004638671875 633.7423095703125 636.11883544921875 642.495361328125 644.81988525390625 643.69744873046875 644.62603759765625 646.2274169921875 646.8966064453125 647.3392333984375 648.67999267578125 648.49810791015625 648.445068359375 647.26873779296875 644.86907958984375 644.10418701171875 642.65283203125 641.0206298828125 639.38665771484375 634.97320556640625 630.3968505859375 630.42266845703125 632.39190673828125 635.6622314453125 640.34710693359375 644.37786865234375 647.50384521484375 649.735107421875 648.66363525390625 644.3612060546875 641.03076171875 639.385986328125 639.565673828125 640.29345703125 641.46368408203125 640.3382568359375 635.47186279296875 626.5220947265625 618.7801513671875 612.81475830078125 609.20428466796875 606.4906005859375 605.00604248046875 604.405029296875 602.529541015625 600.21490478515625 596.31591796875 591.287109375 585.24517822265625 580.3056640625 574.4737548828125 567.03558349609375 562.4490966796875 563.6212158203125 567.64794921875 575.28216552734375 587.38397216796875 600.61669921875 609.51007080078125 613.2008056640625 613.06341552734375 610.90997314453125 607.37579345703125 604.2703857421875 602.75909423828125 603.31976318359375 606.35491943359375 611.389404296875 610.448974609375 603.0126953125 593.66845703125 584.46063232421875 578.0416259765625 576.2354736328125 580.52484130859375 590.92510986328125 602.59051513671875 611.56683349609375 616.92254638671875 620.54071044921875 621.37933349609375 622.19134521484375 623.3753662109375 622.22247314453125 619.33721923828125 617.1951904296875 617.73822021484375 619.85528564453125 623.24462890625 629.9239501953125 636.6142578125 641.05242919921875 645.7769775390625 646.00482177734375 641.67120361328125 636.81756591796875 634.16455078125 631.32818603515625 628.6453857421875 630.63446044921875 632.2978515625 631.63726806640625 632.05810546875 633.6441650390625 635.7738037109375 636.279541015625 633.924560546875 631.47210693359375 628.9835205078125 623.366943359375 619.364501953125 618.18023681640625 619.28106689453125 619.34228515625 617.68048095703125 617.00958251953125 620.33221435546875 625.8436279296875 629.3028564453125 630.3197021484375
550.525634765625 548.26275634765625 548.26495361328125 548.2701416015625 548.275390625 548.975341796875 550.75506591796875 550.21990966796875 550.227783203125 555.81787109375 562.62701416015625 569.87237548828125 575.983154296875 580.45849609375 585.10797119140625 591.30633544921875 596.2369384765625 597.8153076171875 597.98199462890625 598.2171630859375 599.39080810546875 598.81292724609375 598.6424560546875 601.1727294921875 605.350341796875 610.91900634765625 614.6572265625 616.0220947265625 618.206787109375 622.52117919921875 625.90960693359375 627.03955078125 625.8907470703125 622.89471435546875 617.61541748046875 613.12420654296875 610.85906982421875 611.42340087890625 616.0018310546875 622.09075927734375 627.33349609375 630.14501953125 631.0001220703125 631.9188232421875 631.14202880859375 632.83551025390625 638.0648193359375 640.9718017578125 641.38800048828125 643.863525390625 646.44598388671875 647.4129638671875 647.09588623046875 646.76849365234375 645.49365234375 643.9344482421875 643.010498046875 641.27691650390625 640.6807861328125 639.687744140625 639.044189453125 639.24517822265625 635.9315185546875 631.7548828125 630.10107421875 630.098876953125 631.87164306640625 636.36077880859375 640.81903076171875 645.24896240234375 648.06512451171875 647.28143310546875 645.597412109375 644.23638916015625 643.78271484375 643.979736328125 643.627197265625 643.777099609375 641.633056640625 635.88726806640625 628.75384521484375 621.98223876953125 612.86590576171875 608.12286376953125 605.013427734375 605.1986083984375 606.08837890625 603.82952880859375 600.38671875 592.66668701171875 587.02276611328125 583.27850341796875 579.3798828125 570.67755126953125 561.91424560546875 559.90771484375 564.3505859375 572.40594482421875 584.90740966796875 597.26239013671875 608.2530517578125 614.709716796875 619.14691162109375 620.20654296875 615.81011962890625 609.5384521484375 604.25189208984375 599.9915771484375 599.1065673828125 601.99176025390625 605.7291259765625 604.4820556640625 597.6763916015625 590.04150390625 580.97601318359375 572.32452392578125 573.11260986328125 581.01361083984375 592.68475341796875 604.6536865234375 611.33294677734375 613.470947265625 614.67633056640625 615.25762939453125 616.195068359375 616.68560791015625 616.15484619140625 616.16009521484375 616.16534423828125 616.89666748046875 619.7694091796875 626.00897216796875 633.99066162109375 638.95806884765625 641.9962158203125 644.8759765625 644.45062255859375 639.7037353515625 634.31646728515625 630.44287109375 627.1981201171875 625.8409423828125 629.8341064453125 632.26861572265625 632.6112060546875 632.32470703125 633.84033203125 636.03125 635.87188720703125 632.41387939453125 628.9510498046875 627.16357421875 622.948974609375 621.78338623046875 621.7269287109375 622.2425537109375 622.33477783203125 620.66204833984375 619.23858642578125 623.01666259765625 627.6802978515625 628.96978759765625 627.41094970703125
548.25537109375 548.25750732421875 548.26275634765625 548.26800537109375 548.27325439453125 548.2784423828125 548.8189697265625 550.5621337890625 551.97845458984375 557.24700927734375 560.90826416015625 565.90966796875 572.443115234375 578.47186279296875 585.14794921875 591.50872802734375 596.25457763671875 597.03326416015625 597.45953369140625 595.94012451171875 593.20196533203125 591.12225341796875 591.0274658203125 592.8536376953125 598.179931640625 605.1707763671875 609.68121337890625 611.1263427734375 611.96826171875 616.85906982421875 621.377685546875 621.32415771484375 619.5057373046875 617.1285400390625 613.2232666015625 610.169921875 608.185546875 608.193359375 613.5697021484375 620.7841796875 625.51593017578125 627.819091796875 629.18621826171875 631.08258056640625 631.8983154296875 633.295166015625 635.8778076171875 637.2391357421875 638.608154296875 642.11724853515625 645.8704833984375 647.337158203125 647.08154296875 645.47283935546875 643.56024169921875 641.7030029296875 640.31121826171875 639.385986328125 638.15716552734375 636.037353515625 635.38494873046875 636.157470703125 634.5703125 630.90997314453125 630.098876953125 630.0936279296875 630.09149169921875 633.3031005859375 637.36907958984375 642.36083984375 644.650146484375 644.76580810546875 646.64373779296875 645.5615234375 644.897216796875 644.54449462890625 644 644.56829833984375 642.6666259765625 636.88134765625 628.20147705078125 621.64373779296875 613.3519287109375 608.9656982421875 609.32330322265625 610.476318359375 609.6895751953125 606.75958251953125 600.072021484375 590.12060546875 584.713134765625 581.82958984375 576.57470703125 566.5535888671875 557.49407958984375 558.978271484375 566.93304443359375 578.34112548828125 590.105712890625 600.4151611328125 609.2919921875 616.67474365234375 622.26129150390625 623.318359375 618.1915283203125 610.68255615234375 603.410888671875 599.1126708984375 596.83953857421875 597.3013916015625 598.10247802734375 594.49627685546875 587.974853515625 581.41546630859375 574.7935791015625 570.6226806640625 575.43408203125 583.2630615234375 593.001953125 603.34112548828125 607.70166015625 606.61376953125 606.04010009765625 607.99127197265625 611.56884765625 614.6942138671875 617.70159912109375 620.20330810546875 621.2401123046875 621.760009765625 623.3946533203125 628.6180419921875 635.576904296875 639.10821533203125 640.98211669921875 643.426025390625 642.251220703125 636.96923828125 630.76861572265625 625.717529296875 623.34747314453125 622.817138671875 625.9476318359375 629.1209716796875 630.81353759765625 631.53118896484375 633.020751953125 634.7926025390625 634.65350341796875 631.39154052734375 627.78558349609375 626.23468017578125 625.614501953125 625.743896484375 626.49981689453125 626.224609375 624.7994384765625 623.2388916015625 622.8260498046875 625.30389404296875 627.78533935546875 627.4873046875 623.08258056640625
548.2501220703125 550.66619873046875 552.38836669921875 554.16998291015625 556.7652587890625 559.31439208984375 559.29705810546875 557.8580322265625 557.683349609375 560.93890380859375 563.127685546875 565.2352294921875 570.02471923828125 575.97625732421875 583.10687255859375 591.414306640625 596.99700927734375 596.8712158203125 593.611083984375 590.6949462890625 586.85107421875 585.103515625 584.7557373046875 586.91259765625 592.0455322265625 597.6309814453125 603.66851806640625 606.685302734375 607.75970458984375 610.7598876953125 613.434326171875 613.54241943359375 612.04736328125 611.37890625 608.571044921875 607.169921875 606.72674560546875 608.10882568359375 614.05499267578125 620.443603515625 624.90570068359375 626.75653076171875 628.13568115234375 631.32159423828125 633.3160400390625 634.57745361328125 635.22027587890625 634.8909912109375 636.33599853515625 640.1160888671875 643.86126708984375 645.3265380859375 645.43377685546875 644.50830078125 643.64373779296875 643.76800537109375 641.5797119140625 639.66998291015625 637.42169189453125 633.6103515625 631.21484375 631.60552978515625 631.887451171875 630.1019287109375 630.0966796875 630.09149169921875 630.08624267578125 631.4915771484375 634.58087158203125 638.29168701171875 639.392333984375 640.15032958984375 641.5791015625 642.1488037109375 642.8411865234375 643.26947021484375 643.15972900390625 642.69866943359375 642.7401123046875 637.20849609375 628.1221923828125 619.7186279296875 616.4788818359375 616.19000244140625 617.5408935546875 616.65478515625 613.96343994140625 607.116943359375 599.188720703125 590.39898681640625 586.21630859375 581.01220703125 574.30645751953125 562.96038818359375 555.34271240234375 556.60784912109375 566.01934814453125 577.9609375 588.9058837890625 598.34259033203125 605.4356689453125 613.033447265625 618.2763671875 619.88067626953125 616.67681884765625 610.54559326171875 602.66375732421875 596.49346923828125 592.4873046875 591.2249755859375 589.3765869140625 584.7686767578125 578.6514892578125 572.41094970703125 568.53192138671875 571.38134765625 578.4793701171875 584.91632080078125 593.13372802734375 601.385986328125 604.03350830078125 602.410888671875 602.4161376953125 607.0152587890625 613.47064208984375 618.649658203125 623.8818359375 628.18896484375 629.527587890625 628.82415771484375 628.27252197265625 630.47979736328125 634.3876953125 636.43145751953125 638.51611328125 642.131591796875 639.81390380859375 634.25518798828125 626.96319580078125 622.342529296875 621.4124755859375 621.29803466796875 623.29522705078125 626.01373291015625 628.8709716796875 630.76971435546875 632.48583984375 634.09124755859375 635.34515380859375 633.44287109375 630.135009765625 628.62957763671875 628.54345703125 628.9730224609375 630.76397705078125 631.03759765625 628.61920166015625 626.15106201171875 625.7821044921875 626.697021484375 627.82958984375 625.7620849609375 622.3692626953125
549.18096923828125 555.13275146484375 559.885009765625 563.97320556640625 568.23004150390625 571.05267333984375 569.785888671875 566.7838134765625 563.078369140625 562.857421875 563.3818359375 566.12213134765625 570.90509033203125 575.45904541015625 581.0657958984375 588.7073974609375 594.02117919921875 594.001220703125 590.60284423828125 585.83306884765625 582.5289306640625 582.53106689453125 582.53326416015625 582.53851318359375 585.47015380859375 590.38629150390625 594.8387451171875 600.200439453125 603.3175048828125 604.3466796875 605.69366455078125 606.1966552734375 605.7489013671875 605.945068359375 604.80865478515625 605.2218017578125 607.77850341796875 612.220458984375 618.03753662109375 623.48944091796875 627.86474609375 629.035888671875 629.00775146484375 631.98443603515625 634.58233642578125 635.7366943359375 634.88360595703125 634.88885498046875 635.05224609375 638.10845947265625 640.22900390625 641.2821044921875 642.30560302734375 643.888671875 645.80303955078125 647.27691650390625 645.40863037109375 642.50860595703125 639.18890380859375 634.725341796875 630.115478515625 630.1102294921875 630.10504150390625 630.09979248046875 630.09454345703125 630.08929443359375 630.08404541015625 630.078857421875 630.57366943359375 633.0081787109375 633.58953857421875 633.03778076171875 632.63702392578125 634.81927490234375 638.13177490234375 640.138671875 640.55615234375 639.89599609375 639.59027099609375 636.6759033203125 629.180419921875 622.3270263671875 620.7694091796875 621.81597900390625 621.80169677734375 618.74847412109375 613.88165283203125 608.34490966796875 602.0223388671875 594.24627685546875 588.380126953125 582.70916748046875 572.407470703125 562.30450439453125 555.21331787109375 556.68511962890625 564.6624755859375 575.7161865234375 587.125244140625 593.70989990234375 600.63916015625 605.98992919921875 609.66058349609375 612.0042724609375 611.71124267578125 609.5867919921875 604.2010498046875 595.11871337890625 587.21771240234375 582.58837890625 580.53564453125 576.59429931640625 570.92120361328125 565.47991943359375 564.93701171875 570.347412109375 577.8973388671875 584.147705078125 591.7440185546875 598.69232177734375 601.17156982421875 603.1854248046875 607.22698974609375 613.381591796875 620.18780517578125 624.41485595703125 628.633056640625 632.52996826171875 634.19439697265625 633.8621826171875 632.26409912109375 632.23004150390625 633.22283935546875 633.79364013671875 636.45159912109375 638.04962158203125 635.21881103515625 630.09881591796875 624.35546875 621.06524658203125 619.89788818359375 619.64727783203125 621.32666015625 624.4361572265625 627.6651611328125 629.84283447265625 632.2056884765625 635.4312744140625 637.88006591796875 637.388671875 634.6881103515625 632.48956298828125 632.288818359375 632.57080078125 633.8382568359375 634.532470703125 632.99169921875 629.8360595703125 628.0975341796875 628.59942626953125 628.9063720703125 627.5174560546875 623.54052734375
552.3726806640625 560.00286865234375 566.1607666015625 571.525390625 576.14453125 578.01904296875 576.20062255859375 571.6815185546875 566.41522216796875 562.8626708984375 562.86480712890625 565.70684814453125 571.46112060546875 576.755126953125 582.2191162109375 586.68316650390625 591.0452880859375 591.12091064453125 588.5797119140625 583.43743896484375 582.523681640625 582.52587890625 582.53106689453125 582.53631591796875 584.43133544921875 587.73309326171875 590.53717041015625 594.51922607421875 598.2799072265625 599.392333984375 600.7392578125 600.9407958984375 600.841796875 601.94464111328125 602.6602783203125 605.8304443359375 611.87451171875 618.35198974609375 625.08062744140625 630.5421142578125 634.486328125 634.91827392578125 633.3504638671875 634.61553955078125 636.5364990234375 637.5732421875 635.9310302734375 634.8909912109375 635.04827880859375 636.9879150390625 638.26190185546875 639.1424560546875 641.39892578125 645.084716796875 648.15435791015625 650.02569580078125 649.3155517578125 646.6451416015625 644.07745361328125 639.6326904296875 632.5189208984375 630.10809326171875 630.10284423828125 630.09759521484375 630.09234619140625 630.087158203125 630.0819091796875 630.07666015625 630.0714111328125 630.066162109375 630.06097412109375 630.05572509765625 630.05047607421875 631.2344970703125 634.4306640625 636.3134765625 636.44012451171875 635.38140869140625 634.92242431640625 634.44610595703125 630.919677734375 627.27410888671875 627.1102294921875 627.3294677734375 626.25250244140625 622.09149169921875 615.56768798828125 612.041259765625 607.6773681640625 598.30755615234375 588.20208740234375 580.18402099609375 567.663330078125 558.3538818359375 553.37457275390625 555.0555419921875 562.6639404296875 572.115478515625 583.006103515625 589.9202880859375 593.89874267578125 596.7938232421875 599.55157470703125 603.11981201171875 605.94891357421875 607.50640869140625 603.9166259765625 594.3824462890625 582.85028076171875 574.6669921875 570.56787109375 567.14886474609375 563.51434326171875 562.45892333984375 562.674560546875 568.0693359375 575.92376708984375 584.624267578125 591.2236328125 596.86944580078125 600.723388671875 607.13800048828125 614.49005126953125 619.7080078125 624.63922119140625 627.52197265625 631.4761962890625 634.67498779296875 636.005859375 637.1981201171875 636.42919921875 634.92431640625 634.2017822265625 634.54376220703125 635.31195068359375 633.45208740234375 628.411376953125 624.65264892578125 621.46136474609375 619.0198974609375 618.1881103515625 618.19024658203125 619.9100341796875 623.32073974609375 625.85174560546875 627.81976318359375 631.38909912109375 635.12646484375 638.64837646484375 639.5975341796875 638.44439697265625 637.10394287109375 637.802001953125 638.70391845703125 638.75823974609375 637.71868896484375 635.688232421875 632.8917236328125 630.3880615234375 629.86248779296875 629.90264892578125 625.832763671875 619.55126953125
558.32952880859375 565.221435546875 569.443115234375 574.0853271484375 578.52606201171875 581.09320068359375 580.1165771484375 574.45654296875 567.8421630859375 562.867919921875 562.87005615234375 567.158935546875 572.6910400390625 578.17340087890625 582.6307373046875 585.35443115234375 587.5985107421875 587.23663330078125 585.068115234375 583.6385498046875 582.5184326171875 583.1834716796875 584.71710205078125 588.7188720703125 591.75421142578125 591.55609130859375 590.37176513671875 590.37701416015625 592.82464599609375 594.5142822265625 597.34356689453125 598.1976318359375 597.7415771484375 599.1263427734375 601.46002197265625 606.0667724609375 613.03717041015625 620.580078125 628.2086181640625 634.63018798828125 638.8994140625 639.971923828125 638.5845947265625 638.05535888671875 638.29547119140625 638.84814453125 637.53680419921875 636.57769775390625 636.56182861328125 638.37286376953125 640.49224853515625 641.83135986328125 643.84454345703125 647.4583740234375 650.46990966796875 652.0731201171875 651.90533447265625 649.94287109375 648.33123779296875 643.8067626953125 635.68017578125 630.13568115234375 630.10064697265625 630.095458984375 630.0902099609375 630.0849609375 630.0797119140625 630.07452392578125 630.06927490234375 630.06402587890625 630.05877685546875 630.05352783203125 630.04833984375 630.0430908203125 631.91522216796875 633.15301513671875 633.2110595703125 632.0758056640625 632.1751708984375 633.0244140625 632.63836669921875 630.5394287109375 630.52874755859375 630.2998046875 628.51080322265625 624.2412109375 618.12762451171875 614.39923095703125 612.80828857421875 603.38531494140625 589.623779296875 575.81036376953125 560.97271728515625 553.22930908203125 553.118896484375 554.05279541015625 561.5826416015625 569.397216796875 578.1044921875 583.22430419921875 586.802490234375 590.04144287109375 591.4273681640625 593.881103515625 597.84185791015625 600.0814208984375 597.81805419921875 589.6024169921875 578.36627197265625 568.139892578125 562.444091796875 562.4462890625 562.4515380859375 562.456787109375 562.46197509765625 566.1531982421875 575.3720703125 586.06195068359375 593.73516845703125 599.34759521484375 604.46044921875 612.89849853515625 619.13031005859375 622.42706298828125 625.4825439453125 628.04840087890625 632.6116943359375 636.21832275390625 637.59332275390625 639.810791015625 640.40167236328125 638.39923095703125 636.424560546875 635.58056640625 633.87249755859375 629.96533203125 624.53582763671875 621.15606689453125 618.67791748046875 618.1806640625 618.182861328125 618.1881103515625 618.42547607421875 621.00518798828125 623.27984619140625 625.50860595703125 629.48541259765625 633.7825927734375 636.81195068359375 638.74566650390625 639.61627197265625 640.81854248046875 642.0877685546875 642.868896484375 641.32861328125 639.31103515625 636.0853271484375 633.804443359375 631.00262451171875 628.71514892578125 627.5098876953125 622.0758056640625 613.28717041015625
561.30755615234375 567.421875 572.070068359375 576.17193603515625 581.44281005859375 583.86962890625 582.36212158203125 577.1732177734375 569.22064208984375 564.68280029296875 565.0814208984375 568.35137939453125 571.5421142578125 576.01300048828125 579.37652587890625 580.96368408203125 582.7489013671875 583.18572998046875 582.16796875 582.51104736328125 585.7596435546875 588.3773193359375 591.345458984375 596.31768798828125 597.50433349609375 595.0670166015625 592.5242919921875 590.379150390625 590.3843994140625 592.52947998046875 594.98858642578125 596.32635498046875 596.48187255859375 598.4017333984375 601.40728759765625 605.3819580078125 611.38348388671875 617.04632568359375 624.32122802734375 631.80487060546875 637.544677734375 640.49371337890625 641.04833984375 640.4764404296875 639.4698486328125 639.63470458984375 639.560302734375 639.15753173828125 640.1112060546875 642.14892578125 644.08416748046875 645.20367431640625 645.5408935546875 647.7484130859375 651.03887939453125 652.16741943359375 652.24462890625 650.94140625 649.7626953125 645.5277099609375 637.55731201171875 632.38751220703125 631.16876220703125 631.1429443359375 630.81597900390625 630.08282470703125 630.07757568359375 630.07232666015625 630.06707763671875 630.06182861328125 630.056640625 630.0513916015625 630.046142578125 630.0408935546875 630.03564453125 630.03045654296875 630.65936279296875 630.01995849609375 630.14825439453125 631.21722412109375 632.0888671875 631.04248046875 630.8321533203125 629.86859130859375 627.9671630859375 624.1053466796875 618.98736572265625 614.914794921875 613.91973876953125 606.50201416015625 592.467529296875 575.432861328125 559.03143310546875 553.1114501953125 553.1136474609375 555.35870361328125 560.44482421875 565.14971923828125 574.07928466796875 581.37152099609375 585.49078369140625 587.33880615234375 587.88385009765625 588.76806640625 589.4771728515625 589.62176513671875 587.167236328125 580.31964111328125 571.90216064453125 562.87286376953125 562.43890380859375 562.444091796875 562.4493408203125 562.45458984375 565.0101318359375 567.7667236328125 575.88739013671875 587.76983642578125 597.328125 604.05609130859375 610.8695068359375 618.09991455078125 622.876953125 624.98614501953125 625.87628173828125 627.95831298828125 632.131591796875 636.05706787109375 638.2347412109375 640.60028076171875 642 640.4361572265625 637.02752685546875 634.39642333984375 631.4925537109375 626.41552734375 622.69183349609375 619.779541015625 618.17327880859375 618.17547607421875 618.1806640625 618.1859130859375 618.191162109375 619.9364013671875 622.3040771484375 624.904052734375 628.924072265625 632.6363525390625 635.37554931640625 638.44146728515625 640.96484375 643.70556640625 643.75531005859375 643.045166015625 641.35504150390625 638.03369140625 634.15936279296875 631.92340087890625 629.44384765625 626.24920654296875 622.50848388671875 617.6231689453125 611.79388427734375
563.1834716796875 568.97796630859375 573.77276611328125 578.6326904296875 583.315673828125 586.45306396484375 585.4228515625 580.126708984375 573.2880859375 567.9066162109375 567.5814208984375 567.8680419921875 568.170654296875 570.582763671875 572.35308837890625 573.9559326171875 577.331787109375 579.8614501953125 579.30682373046875 580.968017578125 586.94439697265625 590.97723388671875 595.60205078125 600.1016845703125 600.4632568359375 599.44677734375 595.274658203125 591.51025390625 590.603271484375 592.74774169921875 594.5870361328125 595.44866943359375 596.71978759765625 599.52056884765625 602.5816650390625 605.8104248046875 608.9669189453125 612.38909912109375 618.38250732421875 626.50732421875 632.51495361328125 636.27874755859375 639.13958740234375 640.10345458984375 639.7840576171875 640.9306640625 641.36724853515625 642.00531005859375 643.855224609375 645.51513671875 645.88067626953125 645.7542724609375 644.5731201171875 644.8369140625 648.236328125 650.306884765625 650.9569091796875 650.17462158203125 649.30841064453125 646.21624755859375 639.43853759765625 634.03802490234375 632.609375 633.63616943359375 634.5169677734375 633.21966552734375 630.5166015625 630.07012939453125 630.06494140625 630.0596923828125 630.054443359375 630.0491943359375 630.04400634765625 630.03875732421875 630.03350830078125 630.02825927734375 630.02301025390625 630.017822265625 630.0125732421875 630.00732421875 630.43316650390625 628.6055908203125 626.84930419921875 626.15093994140625 626.02276611328125 623.6514892578125 619.61370849609375 615.2740478515625 614 608.5548095703125 596.45159912109375 577.6370849609375 558.68017578125 553.10626220703125 553.1083984375 556.2852783203125 560.69580078125 565.84906005859375 573.18670654296875 582.145263671875 586.4329833984375 587.7000732421875 586.55963134765625 586.24749755859375 584.7264404296875 581.14654541015625 576.98736572265625 572.40625 565.86175537109375 562.43145751953125 563.17767333984375 566.0712890625 568.7938232421875 571.24102783203125 572.29559326171875 573.3380126953125 581.01416015625 592.7816162109375 600.32257080078125 607.942626953125 615.32293701171875 621.32061767578125 625.1173095703125 626.10260009765625 626.27508544921875 627.90911865234375 631.3472900390625 634.6685791015625 636.8330078125 639.23944091796875 640.7158203125 639.2003173828125 635.00006103515625 631.63348388671875 627.779052734375 622.2662353515625 619.8604736328125 618.999755859375 618.16802978515625 618.17327880859375 618.17852783203125 618.18377685546875 619.4464111328125 622.794921875 625.7691650390625 626.85791015625 628.779052734375 631.9014892578125 635.73699951171875 639.40692138671875 642.1173095703125 643.41754150390625 642.5714111328125 640.5523681640625 638.4725341796875 635.632080078125 631.825927734375 628.28607177734375 625.63336181640625 622.0120849609375 616.94488525390625 612.94580078125 610.12176513671875
567.60394287109375 573.533447265625 578.17803955078125 582.62908935546875 586.2713623046875 588.8712158203125 588.16693115234375 583.1290283203125 575.35089111328125 570.7061767578125 568.73236083984375 567.58880615234375 567.59405517578125 567.59930419921875 567.61163330078125 568.827880859375 571.73297119140625 574.8956298828125 577.1734619140625 582.62884521484375 589.036865234375 594.79693603515625 600.54144287109375 603.9727783203125 604.3739013671875 604.058837890625 602.5308837890625 596.7655029296875 594.53631591796875 595.61846923828125 597.10186767578125 599.30804443359375 601.5653076171875 603.67822265625 605.29034423828125 608.1484375 609.72723388671875 611.0538330078125 615.80487060546875 622.71075439453125 627.6788330078125 631.33837890625 634.93646240234375 636.90582275390625 638.45941162109375 640.8846435546875 642.48858642578125 644.0294189453125 645.7703857421875 646.9534912109375 646.80474853515625 645.49798583984375 643.5440673828125 643.4765625 645.15106201171875 648.4107666015625 649.57867431640625 649.3663330078125 648.75286865234375 647.33270263671875 642.86187744140625 637.273681640625 635.58941650390625 637.0538330078125 638.7159423828125 638.11181640625 633.74432373046875 630.07232666015625 630.06707763671875 630.06182861328125 630.056640625 631.42877197265625 633.20770263671875 631.41357421875 630.5484619140625 630.03045654296875 630.02520751953125 630.01995849609375 630.01470947265625 630.472412109375 629.49468994140625 625.5537109375 620.5958251953125 620.59906005859375 621.1678466796875 619.94891357421875 617.8577880859375 615.08734130859375 612.72784423828125 609.3802490234375 596.62945556640625 571.51611328125 555.26947021484375 553.10101318359375 553.86883544921875 557.20770263671875 562.233642578125 566.98956298828125 573.1243896484375 582.92254638671875 587.19146728515625 587.71820068359375 585.86004638671875 582.91473388671875 578.74517822265625 573.04034423828125 568.94879150390625 565.08209228515625 562.424072265625 566.28466796875 571.64068603515625 574.9610595703125 576.40472412109375 576.925537109375 577.38531494140625 579.46514892578125 587.32232666015625 597.3447265625 603.59228515625 610.82086181640625 617.34027099609375 622.6707763671875 625.82867431640625 626.0093994140625 626.45361328125 627.88092041015625 630.78814697265625 632.9805908203125 634.6290283203125 636.088623046875 637.18743896484375 635.56243896484375 631.83062744140625 627.97967529296875 623.54443359375 618.5313720703125 617.57611083984375 618.16064453125 618.30865478515625 618.54571533203125 619.70953369140625 620.88623046875 623.2662353515625 627.9725341796875 629.5938720703125 628.73468017578125 630.05865478515625 633.53448486328125 637.63037109375 640.32977294921875 641.46478271484375 641.63824462890625 640.00128173828125 636.85552978515625 633.94110107421875 631.36053466796875 627.90185546875 623.24224853515625 618.42120361328125 614.0965576171875 610.716796875 608.13494873046875 607.6124267578125
572.7413330078125 578.521484375 582.40625 585.9864501953125 589.0316162109375 590.577392578125 589.123291015625 583.89337158203125 577.53717041015625 573.62322998046875 570.26666259765625 567.59405517578125 567.59625244140625 567.6014404296875 567.606689453125 567.6119384765625 568.47552490234375 573.1033935546875 578.35760498046875 583.64794921875 591.3353271484375 598.6146240234375 604.80780029296875 607.83306884765625 608.48095703125 609.6092529296875 608.40338134765625 604.46630859375 602.09228515625 601.4052734375 602.52459716796875 604.035888671875 606.17840576171875 607.29168701171875 609.5240478515625 612.76995849609375 614.25555419921875 613.814453125 616.39825439453125 621.19610595703125 624.89990234375 628.26171875 631.5009765625 634.12921142578125 637.36651611328125 640.80145263671875 643.27313232421875 645.2374267578125 646.6658935546875 648.1297607421875 647.792236328125 645.8865966796875 643.815185546875 643.4713134765625 644.00396728515625 647.239501953125 648.70068359375 649 649.36688232421875 649.57171630859375 646.84423828125 642.72552490234375 641.02587890625 641.0628662109375 642.9296875 641.2894287109375 636.34967041015625 632.8443603515625 630.20574951171875 630.48455810546875 634.02166748046875 637.47393798828125 638.255615234375 635.84564208984375 634.05072021484375 632.40008544921875 631.9825439453125 632.0223388671875 632.50042724609375 632.50836181640625 630.17901611328125 622.911376953125 616.40936279296875 614.73980712890625 615.3984375 614.7666015625 614.35455322265625 612.12939453125 607.42333984375 602.9678955078125 588.9423828125 567.19097900390625 554.05548095703125 553.09576416015625 553.430908203125 557.21734619140625 562.24908447265625 567.6812744140625 573.99725341796875 582.83074951171875 587.178466796875 587.9979248046875 586.14300537109375 580.1363525390625 572.3741455078125 564.82366943359375 560.5703125 560.94659423828125 562.6763916015625 568.3359375 574.3367919921875 575.797119140625 575.86181640625 576.586669921875 579.2596435546875 583.79010009765625 592.14337158203125 601.52471923828125 608.2325439453125 614.8056640625 620.88507080078125 625.09271240234375 626.270751953125 625.8360595703125 626.35809326171875 627.8182373046875 630.04400634765625 631.45635986328125 631.9490966796875 632.01513671875 632.23492431640625 630.7591552734375 627.5574951171875 624.38372802734375 620.57427978515625 617.5687255859375 617.57086181640625 618.0662841796875 619.86322021484375 621.70599365234375 624.2259521484375 626.52734375 629.1988525390625 632.76287841796875 632.48590087890625 631.0562744140625 633.44830322265625 637.12896728515625 639.7227783203125 640.84808349609375 640.55938720703125 639.3201904296875 636.5595703125 632.33966064453125 629.24432373046875 627.23541259765625 623.01715087890625 616.84765625 611.3758544921875 606.90106201171875 604.00213623046875 603.83056640625 604.50604248046875
577.6644287109375 582.03204345703125 585.54364013671875 588.67681884765625 590.60699462890625 591 589.27276611328125 584.4561767578125 579.46258544921875 575.870361328125 571.4359130859375 567.59930419921875 567.6014404296875 567.6036376953125 567.60888671875 567.6141357421875 568.329833984375 573.717041015625 579.26397705078125 583.63763427734375 591.44207763671875 598.80902099609375 605.349853515625 608.9324951171875 610.08978271484375 614.2232666015625 615.03326416015625 613.0576171875 609.6256103515625 606.1009521484375 606.43621826171875 607.13128662109375 608.1787109375 610.3834228515625 613.14166259765625 615.4981689453125 616.87152099609375 617.01416015625 617.728759765625 620.52813720703125 623.292236328125 627.18994140625 630.384765625 633.42218017578125 637.252685546875 640.53582763671875 642.92047119140625 644.5284423828125 646.02728271484375 647.69873046875 648.05657958984375 646.2457275390625 644.39276123046875 643.466064453125 644.03314208984375 646.79345703125 648.1451416015625 648.61669921875 649.2791748046875 650.18035888671875 648.22247314453125 646.2921142578125 644.0321044921875 643.11895751953125 644.44183349609375 643.2752685546875 640.35174560546875 638.25390625 636.15673828125 636.43902587890625 638.1744384765625 639.72735595703125 639.9302978515625 638.12579345703125 634.36785888671875 630.50311279296875 629.464111328125 631.47320556640625 634.0379638671875 634.44097900390625 630.80712890625 621.62548828125 613.50537109375 611.43048095703125 610.5244140625 608.70111083984375 607.338623046875 605.92535400390625 601.60296630859375 594.21331787109375 580.8629150390625 567.16729736328125 556.09063720703125 553.09051513671875 554.21142578125 557.572265625 561.6107177734375 569.42425537109375 578.28216552734375 583.02520751953125 587.0076904296875 587.0333251953125 584.53900146484375 576.4107666015625 568.135498046875 559.833984375 558.754638671875 562.39312744140625 566.1778564453125 568.7945556640625 572.47113037109375 574.36260986328125 575 576.591064453125 580.45709228515625 586.83258056640625 593.404296875 602.61358642578125 611.9425048828125 618.51531982421875 623.6016845703125 626.5196533203125 626.89208984375 627.33856201171875 628.09002685546875 628.284912109375 629.34271240234375 629.37713623046875 629.35064697265625 628.8226318359375 627.47613525390625 625.56884765625 622.755126953125 621.0703125 618.91961669921875 617.5634765625 617.672119140625 619.90289306640625 622.48199462890625 626.25823974609375 629.83935546875 632.65264892578125 634.68792724609375 636.3575439453125 635.51397705078125 634.5924072265625 637.2552490234375 640.0574951171875 641.0723876953125 641.60308837890625 640.52777099609375 636.525390625 632.2296142578125 627.56561279296875 624.4508056640625 622.287353515625 616.49615478515625 610.08782958984375 606.17291259765625 601.3388671875 600.20819091796875 600.39617919921875 600.697021484375
582.443603515625 586.04351806640625 588.31353759765625 590.65838623046875 591.8983154296875 592.02435302734375 589.61053466796875 584.7099609375 580.51947021484375 575.9495849609375 570.34796142578125 567.60455322265625 567.606689453125 567.60888671875 567.61102294921875 567.61627197265625 569.134765625 573.99700927734375 580.72210693359375 585.63348388671875 589.44842529296875 596.59649658203125 604.0662841796875 608.9249267578125 613.57647705078125 618.3927001953125 620.470703125 620.6741943359375 618.44586181640625 614.28912353515625 611.40948486328125 610.4654541015625 611.60296630859375 613.2904052734375 614.06976318359375 614.78692626953125 616.67181396484375 617.20135498046875 618.4166259765625 620.10400390625 623.6641845703125 627.75164794921875 630.79095458984375 634.50347900390625 637.514892578125 639.43988037109375 641.33453369140625 641.82965087890625 643.18804931640625 644.899169921875 646.33721923828125 645.8505859375 644.24053955078125 643.45648193359375 643.69622802734375 645.89752197265625 648.07489013671875 648.24578857421875 648.10540771484375 648.23162841796875 647.48284912109375 645.7344970703125 643.11627197265625 642.20538330078125 643.19384765625 644.1036376953125 644.44769287109375 643.83367919921875 641.4842529296875 639.73394775390625 638.7869873046875 638.8204345703125 638.84967041015625 637.34295654296875 632.55181884765625 627.041748046875 624.46942138671875 625.87890625 629.27618408203125 630.91351318359375 628.07501220703125 620.7196044921875 613.06884765625 607.82904052734375 603.6121826171875 600.6929931640625 597.6683349609375 596.53900146484375 593.84344482421875 585.01007080078125 575.38671875 566.24908447265625 558.19219970703125 553.1622314453125 553.0831298828125 555.86199951171875 561.3829345703125 571.000732421875 581.05548095703125 583.73492431640625 582.077880859375 579.4788818359375 574.75347900390625 569.47882080078125 563.3543701171875 558.74725341796875 560.921875 566.97064208984375 569.94378662109375 570.354736328125 572.049072265625 574.644287109375 575.34765625 576.37359619140625 579.626953125 584.4725341796875 589.73974609375 599.404541015625 610.81890869140625 618.50189208984375 622.20123291015625 624.39691162109375 626.00823974609375 627.96844482421875 628.75396728515625 628.74072265625 628.04840087890625 627.951171875 627.54156494140625 626.2261962890625 624.24029541015625 622.3607177734375 619.99908447265625 618.52545166015625 617.72119140625 617.5582275390625 619.75921630859375 622.1915283203125 625.60821533203125 629.53765869140625 632.3668212890625 634.36614990234375 636.14410400390625 637.3475341796875 636.98675537109375 636.89080810546875 639.07403564453125 640.44903564453125 640.37542724609375 640.26751708984375 638.906494140625 633.194580078125 627.59881591796875 622.83721923828125 619.99176025390625 616.6336669921875 610.31610107421875 604.3206787109375 601.77142333984375 600.2113037109375 600.2060546875 600.2008056640625 599.12615966796875
586.04736328125 589.0777587890625 590.2376708984375 590.64678955078125 591.50347900390625 591.26104736328125 589.21160888671875 584.7760009765625 580.27398681640625 575.12548828125 569.2994384765625 567.6097412109375 567.6119384765625 567.6141357421875 567.61627197265625 567.61846923828125 567.6236572265625 573.5792236328125 580.2073974609375 584.315185546875 587.546142578125 595.346435546875 603.62860107421875 610.156494140625 615.0947265625 620.72918701171875 624.9019775390625 626.4637451171875 624.53106689453125 621.3466796875 618.95587158203125 616.1719970703125 615.94720458984375 616.4737548828125 615.43597412109375 615.13079833984375 616.01708984375 618.22491455078125 620.35223388671875 621.73486328125 624.1329345703125 626.1812744140625 628.16943359375 632.71295166015625 637.02239990234375 637.98187255859375 638.877685546875 639.6419677734375 639.4622802734375 641.4515380859375 643.28839111328125 643.157470703125 642.1751708984375 641.54315185546875 642.813720703125 644.9468994140625 647.95062255859375 648.7998046875 648.0865478515625 647.54119873046875 646.93585205078125 644.832275390625 642.135986328125 640.37213134765625 641.3895263671875 643.864501953125 645.4737548828125 646.1055908203125 644.22467041015625 641.506591796875 638.4346923828125 637.0767822265625 635.989990234375 634.9708251953125 630.82708740234375 625.5736083984375 620.8184814453125 618.220947265625 619.92388916015625 621.39990234375 620.99908447265625 617.03533935546875 610.53350830078125 602.6029052734375 596.78411865234375 592.71875 588.51934814453125 585.81915283203125 582.98248291015625 575.7725830078125 570.36383056640625 563.90460205078125 557.03448486328125 551.99505615234375 551.67169189453125 553.874267578125 558.54022216796875 567.00457763671875 574.731689453125 578.308837890625 576.07403564453125 571.09075927734375 563.51763916015625 557.45166015625 555.87200927734375 558.4774169921875 563.512939453125 569.0289306640625 572.79052734375 574.3546142578125 576.603515625 578.593017578125 579.34130859375 579.372802734375 580.7401123046875 583.61712646484375 587.80694580078125 596.40338134765625 608.3770751953125 616.41192626953125 620.57843017578125 622.4383544921875 623.964111328125 626.4200439453125 627.81805419921875 628.191650390625 628.65802001953125 627.84197998046875 626.3543701171875 622.97943115234375 619.88909912109375 619.232177734375 617.95709228515625 617.08624267578125 617.291748046875 618.08221435546875 620.32830810546875 623.03863525390625 627.35382080078125 630.81256103515625 632 632.42510986328125 634.09698486328125 635.80889892578125 636.54962158203125 637.7545166015625 639.26580810546875 640 639.29718017578125 637.53375244140625 635.44390869140625 629.48358154296875 622.44708251953125 617.98699951171875 614.76153564453125 610.85162353515625 605.744140625 602.86700439453125 602.53363037109375 600.776123046875 600.31378173828125 603.3338623046875 603.2716064453125
587.26556396484375 589.857666015625 590.17974853515625 588.92138671875 589.18896484375 588.98040771484375 587.32958984375 583.318115234375 578.77825927734375 574.6494140625 569.81353759765625 567.614990234375 567.6171875 567.61932373046875 567.62152099609375 567.6236572265625 567.6258544921875 571.847412109375 578.39385986328125 583.1673583984375 587.8453369140625 594.8785400390625 602.3587646484375 608.94110107421875 614.80145263671875 621.43170166015625 625.45159912109375 626.83489990234375 625.2462158203125 626.491943359375 624.63177490234375 621.43084716796875 620.425048828125 619.40997314453125 619.00726318359375 618.33892822265625 618.9619140625 620.17803955078125 622.1788330078125 623.2742919921875 624.02996826171875 624.0504150390625 624.560791015625 628.85845947265625 635.37664794921875 638.07440185546875 638.53045654296875 639.173828125 639.18707275390625 639.19232177734375 639.19757080078125 639.2027587890625 639.2080078125 639.63531494140625 642.7882080078125 644.4534912109375 647.08917236328125 648.8692626953125 649.3197021484375 648.85528564453125 646.80303955078125 644.30328369140625 641.33489990234375 639.15252685546875 639.81134033203125 642.651123046875 644.99176025390625 646.17047119140625 645.484619140625 642.45782470703125 638.62384033203125 635.96368408203125 632.8768310546875 631.74090576171875 629.12225341796875 624.57769775390625 618.41375732421875 611.61322021484375 609.7078857421875 610.2298583984375 611.05133056640625 608.98321533203125 604.34088134765625 597.4859619140625 591.05157470703125 585.3819580078125 580.48779296875 575.5164794921875 570.83599853515625 567.4534912109375 564.04547119140625 559.03936767578125 554.12176513671875 550.41680908203125 549.015869140625 550.26220703125 552.886962890625 559.2222900390625 565.412109375 566.69677734375 565.33343505859375 562.8323974609375 557.31591796875 554.60943603515625 556.9267578125 561.814208984375 567.99090576171875 573.05133056640625 574.92724609375 577.22198486328125 579.896728515625 583.66131591796875 584.78326416015625 584.467041015625 586.51470947265625 588.69537353515625 593.2479248046875 600.6829833984375 609.8575439453125 619.162841796875 623.575439453125 622.692626953125 623.4332275390625 624.43487548828125 626.94085693359375 628.93524169921875 630.4927978515625 627.5235595703125 624.98675537109375 619.6929931640625 615.72564697265625 616.087890625 616.337646484375 617.4832763671875 618.52935791015625 618.47564697265625 620.7099609375 623.5401611328125 627.58111572265625 631.38873291015625 632.18994140625 631.37127685546875 632.134521484375 634.1927490234375 636.42333984375 638.7052001953125 640.10284423828125 640.499755859375 639.169677734375 635.57159423828125 631.28094482421875 624.9742431640625 618.79095458984375 614.8338623046875 610.82843017578125 608.12066650390625 606.40704345703125 607.07861328125 608.06475830078125 607.95587158203125 608.45770263671875 611.3499755859375 609.76904296875
585.9476318359375 587.7286376953125 588.13934326171875 586.6033935546875 585.879638671875 585.72064208984375 583.4085693359375 579.8194580078125 576.0706787109375 573.681884765625 570.7532958984375 567.6202392578125 567.6224365234375 567.62457275390625 567.62677001953125 567.62890625 567.631103515625 569.27923583984375 576.8480224609375 582.90179443359375 589.62127685546875 596.95196533203125 603.41796875 609.4686279296875 614.61688232421875 618.93817138671875 622.605224609375 623.4471435546875 625.87750244140625 628.94970703125 628.906494140625 626.00164794921875 624.35125732421875 623.8299560546875 623.87908935546875 623.93743896484375 623.17755126953125 622.07171630859375 622.10797119140625 623.2099609375 624.4713134765625 624.8223876953125 624.875244140625 628.5352783203125 634.6771240234375 639.37701416015625 640.87255859375 640.17364501953125 640.32293701171875 639.986572265625 639.19970703125 639.2049560546875 639.210205078125 639.52044677734375 643.39990234375 645.236572265625 646.30853271484375 648.1895751953125 649.52044677734375 649.2281494140625 646.43914794921875 643.13616943359375 640.834716796875 639.14727783203125 639.1451416015625 641.4815673828125 644.159423828125 645.9619140625 645.43096923828125 642.104248046875 637.9617919921875 633.97576904296875 630.48834228515625 628.88397216796875 626.5025634765625 623.18804931640625 617.1109619140625 609.163330078125 603.90789794921875 601.4659423828125 599.702880859375 598.51654052734375 596.84637451171875 592.6922607421875 586.2396240234375 580.20062255859375 574.4193115234375 568.45660400390625 564.085205078125 561.32464599609375 558.042724609375 553.5753173828125 551.307861328125 548.588623046875 546.24346923828125 546.350830078125 548.56298828125 552.86224365234375 555.5498046875 555.02105712890625 552.88726806640625 551.80413818359375 552.51025390625 556.18182373046875 561.95013427734375 566.91656494140625 572.7718505859375 574.15667724609375 574.0399169921875 574.43408203125 578.10577392578125 584.17364501953125 590.28131103515625 593.7034912109375 597.16461181640625 601.38818359375 606.711669921875 610.55157470703125 615.37353515625 622.5159912109375 624.61480712890625 623.65753173828125 622.50189208984375 623.32391357421875 625.8094482421875 628.87359619140625 629.30682373046875 625.86785888671875 621.073974609375 616.71173095703125 615.4727783203125 615.47802734375 616.9376220703125 619.98095703125 620.42205810546875 619.21319580078125 621.440185546875 624.80926513671875 627.43853759765625 630.75018310546875 631.9154052734375 631.2325439453125 632.00146484375 634.37457275390625 637.268798828125 639.28521728515625 641 640.36358642578125 637.1160888671875 631.86328125 626.62933349609375 621.7208251953125 617.64678955078125 613.6607666015625 611.57025146484375 611.22625732421875 612.82183837890625 614.55633544921875 615.45196533203125 615.03485107421875 616.53857421875 617.57379150390625 612.66961669921875
584.29058837890625 584.91986083984375 584.8380126953125 584.05657958984375 582.86181640625 582.143310546875 579.7342529296875 576.407958984375 573.93011474609375 572.58514404296875 571.66796875 570.46221923828125 569.24786376953125 567.62982177734375 567.6319580078125 567.6341552734375 567.63629150390625 568.1094970703125 575.82684326171875 582.0482177734375 590.03619384765625 598.19146728515625 604.44659423828125 609.3345947265625 612.93115234375 615.78240966796875 618.76287841796875 623.036865234375 626.7840576171875 630.9124755859375 631.9366455078125 632.40203857421875 631.5567626953125 629.073486328125 627.80078125 627.85382080078125 625.50030517578125 622.14593505859375 622.0791015625 622.0843505859375 626.4039306640625 628.6417236328125 628.703369140625 631.64117431640625 636.59039306640625 639.4671630859375 640.70941162109375 641.03619384765625 641.89874267578125 641.702392578125 640.3441162109375 639.20709228515625 639.21234130859375 640.77410888671875 643.3408203125 645.42962646484375 645.8831787109375 646.75018310546875 647.81915283203125 648.1123046875 645.67840576171875 642.27056884765625 640.84698486328125 639.5562744140625 639.139892578125 640.91937255859375 642.6845703125 644.198974609375 643.60736083984375 640.97021484375 637.0338134765625 632.4639892578125 629.39337158203125 627.4630126953125 625.21783447265625 623.1744384765625 619.19140625 612.65203857421875 605.60198974609375 598.77691650390625 593.347900390625 591.7947998046875 590.32965087890625 586.9190673828125 581.7095947265625 576.950439453125 572.310302734375 566.23675537109375 561.571044921875 558.37115478515625 555.05810546875 551.30487060546875 549.1817626953125 546.88787841796875 545.1329345703125 545.13507080078125 545.28778076171875 546.95458984375 547.56195068359375 548.03369140625 546.98779296875 547.8448486328125 551.4130859375 559.25274658203125 565.9263916015625 570.3634033203125 573.318115234375 572.60662841796875 572.1580810546875 574.23565673828125 578.2054443359375 586.212890625 596.263671875 601.93560791015625 606.9781494140625 613.2076416015625 618.201416015625 619.8841552734375 619.9715576171875 620.86737060546875 621.12542724609375 619.5574951171875 619.02581787109375 621.45770263671875 624.1834716796875 626.28375244140625 626.7398681640625 623.29522705078125 617.9625244140625 615.46539306640625 615.62884521484375 616.73760986328125 618.89093017578125 621.894775390625 620.93084716796875 619.22772216796875 621.671875 625.0562744140625 627.07879638671875 629.4815673828125 630.644287109375 631.07598876953125 633.046142578125 636.1728515625 638.62481689453125 639.56341552734375 640.46588134765625 638.522705078125 632.2894287109375 626.0936279296875 622.21923828125 618.87969970703125 615.5401611328125 611.80621337890625 613.04132080078125 617.45294189453125 619.7359619140625 620.5955810546875 619.6451416015625 617.24432373046875 616.74627685546875 615.0001220703125 609.27508544921875
582.8292236328125 582.590576171875 582.01513671875 581.7630615234375 580.64105224609375 579.0859375 576.57220458984375 573.85986328125 572.1529541015625 571.9595947265625 573.0986328125 574.3292236328125 573.1783447265625 571.31494140625 567.942138671875 567.639404296875 567.64154052734375 568.498291015625 574.96209716796875 582.19561767578125 589.690185546875 597.16485595703125 604.3463134765625 608.1396484375 610.53985595703125 612.793212890625 615.64434814453125 621.1435546875 625.834716796875 628.63885498046875 630.88421630859375 633.8604736328125 635.23162841796875 633.09967041015625 630.56903076171875 627.88885498046875 626.1688232421875 622.30633544921875 622.0843505859375 622.17242431640625 627.333984375 630.48541259765625 631.62799072265625 633.31134033203125 636.072265625 637.6102294921875 638.7847900390625 640.04742431640625 641.1043701171875 641.83624267578125 641.62689208984375 641.2291259765625 641.847900390625 642.176513671875 642.84942626953125 643.9678955078125 644.9671630859375 645.01788330078125 646.10009765625 646.856201171875 645.54205322265625 642.84588623046875 640.33575439453125 639.18377685546875 638.44891357421875 639.0982666015625 639.85821533203125 640.900634765625 640.9429931640625 639.89251708984375 637.8218994140625 634.209228515625 630.45111083984375 627.61199951171875 627.11083984375 625.6129150390625 624.017578125 619.75286865234375 613.02459716796875 604.1007080078125 597.12347412109375 592.8157958984375 588.59674072265625 584.8917236328125 580.21026611328125 575.53155517578125 572.17144775390625 567.51824951171875 562.78753662109375 558.10430908203125 554.4825439453125 550.97930908203125 547.8299560546875 545.12554931640625 545.127685546875 545.1298828125 545.13201904296875 545.13421630859375 545.41986083984375 546.84539794921875 547.71484375 550.251708984375 555.49566650390625 561.5091552734375 565.99945068359375 569.45281982421875 571.86114501953125 571.3775634765625 572.636962890625 577.8685302734375 583.5533447265625 590.05322265625 598.56451416015625 605.2822265625 611.92413330078125 618.3267822265625 620.77703857421875 620.11395263671875 617.8414306640625 616.52606201171875 614.963623046875 613.4530029296875 614.8946533203125 618.9080810546875 622.66558837890625 624.37506103515625 625.2750244140625 621.904541015625 616.12152099609375 614.5947265625 616.39288330078125 617.38543701171875 618.81292724609375 620.88421630859375 620.33905029296875 619.87091064453125 622.65179443359375 624.4984130859375 626.21435546875 628.98858642578125 630.48974609375 632.41278076171875 635.23870849609375 638.452880859375 640.55377197265625 639.9757080078125 639.02484130859375 634.89544677734375 627.265380859375 621.42498779296875 617.8084716796875 614.39813232421875 611.8135986328125 611.81146240234375 612.4517822265625 620.79119873046875 623.4285888671875 621.67388916015625 617.33856201171875 613.81964111328125 611.4945068359375 607.39373779296875 601.71868896484375
581.20941162109375 580.67364501953125 579.61749267578125 579.24371337890625 577.26397705078125 574.83441162109375 573.17791748046875 571.84588623046875 571.29876708984375 572.20648193359375 574.3311767578125 575.96630859375 575.80841064453125 573.64398193359375 570.796875 567.6446533203125 567.64678955078125 569.15234375 574.656005859375 581.61248779296875 588.8343505859375 596.52197265625 603.70465087890625 607.800537109375 609.231689453125 610.62335205078125 613.474609375 617.82025146484375 620.86956787109375 624.09429931640625 627.62762451171875 632.21478271484375 634.5579833984375 633.493896484375 630.804931640625 629.18524169921875 627.33258056640625 625.88433837890625 625.7196044921875 626.50689697265625 630.20458984375 633.79736328125 635.007568359375 635.0255126953125 635.00946044921875 635.01470947265625 636.7581787109375 639.0303955078125 639.93475341796875 640.615478515625 641.93548583984375 642.51458740234375 643.08392333984375 643.15087890625 643.16412353515625 644.1197509765625 645.018798828125 644.1865234375 645.18426513671875 646.42529296875 645.9583740234375 642.99267578125 639.4019775390625 636.81842041015625 636.1373291015625 636.070068359375 636.193115234375 636.9901123046875 637.751953125 638.102294921875 637.859130859375 635.73590087890625 631.74560546875 629.0936279296875 630.26654052734375 629.96600341796875 628.936767578125 626.56695556640625 621.94805908203125 614.60247802734375 606.88763427734375 599.4459228515625 592.02789306640625 588.11279296875 583.717529296875 579.70361328125 577.12652587890625 574.07330322265625 568.1871337890625 561.1981201171875 555.49761962890625 551.0760498046875 547.39886474609375 545.12030029296875 545.1224365234375 545.1246337890625 545.12677001953125 545.12896728515625 545.4073486328125 546.8323974609375 548.847900390625 552.29144287109375 557.12884521484375 561.73785400390625 565.0145263671875 568.74462890625 571.346923828125 571.90106201171875 576.51007080078125 583.2403564453125 587.3487548828125 592.18463134765625 598.914794921875 608.0135498046875 616.17156982421875 620.88897705078125 621.9827880859375 619.465576171875 614.0673828125 611.31719970703125 608.17535400390625 606.54693603515625 608.75799560546875 614.55316162109375 619.14813232421875 620.9112548828125 621.15057373046875 618.1466064453125 614.40252685546875 614.251708984375 616.1015625 616.90289306640625 617.57098388671875 619.614990234375 623.07843017578125 623.51165771484375 625.51385498046875 626.7315673828125 628.0194091796875 630.0810546875 632.50518798828125 635.81915283203125 638.11572265625 640.4642333984375 641.225830078125 639.15948486328125 636.30181884765625 629.41949462890625 622.2547607421875 617.63409423828125 612.89727783203125 611.821044921875 611.81884765625 611.81671142578125 613.1573486328125 621.4375 624.39349365234375 621.0062255859375 614.76605224609375 610.19757080078125 607.6256103515625 602.4752197265625 596.69476318359375
580.0780029296875 579.71856689453125 577.12603759765625 575.1522216796875 571.95355224609375 570.41107177734375 570.99786376953125 571.2913818359375 571.87786865234375 574.00653076171875 576.8421630859375 577.7220458984375 578.11468505859375 577.23388671875 574.05841064453125 570.91143798828125 569.54095458984375 570.63037109375 574.8905029296875 580.6051025390625 587.65435791015625 594.69586181640625 601.0177001953125 606.3193359375 606.8037109375 607.57623291015625 610.202392578125 612.15380859375 614.90625 618.96148681640625 621.43609619140625 626.892578125 629.31280517578125 629.63458251953125 629.2320556640625 629.03631591796875 628.8446044921875 630.34466552734375 630.7330322265625 631.871337890625 633.1585693359375 634.76544189453125 636.46429443359375 636.39892578125 635.3277587890625 635.05743408203125 635.165771484375 638.08990478515625 639.32012939453125 640.33782958984375 641.32049560546875 642.4522705078125 643.59698486328125 644.08673095703125 644.13848876953125 644.93341064453125 645.733154296875 644.0052490234375 644.63348388671875 646.243408203125 645.437744140625 641.89306640625 637.81304931640625 635.15362548828125 634.316650390625 634.3114013671875 634.30615234375 634.30096435546875 634.958740234375 635.83929443359375 636.2987060546875 634.86212158203125 631.34539794921875 630.15887451171875 632.63140869140625 633.9195556640625 632.389404296875 630.92254638671875 629.19793701171875 624.55792236328125 617.689697265625 608.70208740234375 599.65423583984375 594.91754150390625 592.715087890625 589.587646484375 586.5946044921875 582.77471923828125 576.104248046875 567.9674072265625 560.04644775390625 552.59893798828125 547.396484375 545.11505126953125 545.11724853515625 545.119384765625 545.12158203125 545.12371826171875 545.12591552734375 545.8187255859375 548.9974365234375 553.6297607421875 559.9798583984375 566.7352294921875 571.27685546875 573.88140869140625 576.76287841796875 580.96026611328125 587.20843505859375 590.67047119140625 589.72088623046875 591.632080078125 597.5489501953125 604.36651611328125 614.57464599609375 621.53021240234375 623.6680908203125 619.83123779296875 610.44964599609375 606.31884765625 601.6055908203125 598.1971435546875 600.0108642578125 604.1951904296875 610.15020751953125 613.16033935546875 614.20098876953125 613.28179931640625 611.542236328125 612.21636962890625 614.58782958984375 616.3768310546875 617.7508544921875 621.22943115234375 626.69171142578125 628.72772216796875 630.4644775390625 631.7171630859375 631.68682861328125 632.17864990234375 634.89276123046875 637.83660888671875 639.3544921875 640.19610595703125 639.48541259765625 636.75787353515625 631.88775634765625 624.185546875 617.9451904296875 613.71575927734375 611.82843017578125 611.82623291015625 611.8240966796875 611.8218994140625 615.301025390625 622.73504638671875 625.25860595703125 621.9638671875 616.4317626953125 611.08612060546875 608.2872314453125 603.49224853515625 598.40692138671875
576.80072021484375 576.97979736328125 575.03076171875 571.08349609375 568.07366943359375 569.05718994140625 572.06231689453125 573.73004150390625 574.65936279296875 577.67822265625 581.16351318359375 581.71331787109375 581.6617431640625 580.167236328125 576.540283203125 573.30914306640625 571.05035400390625 572.33746337890625 575.79315185546875 580.87445068359375 586.516357421875 592.8109130859375 599.5654296875 604.34423828125 604.96673583984375 604.73211669921875 606.3546142578125 607.166015625 610.367919921875 614.7620849609375 616.35540771484375 619.39117431640625 622.747802734375 625.6219482421875 626.9412841796875 628.42620849609375 629.66632080078125 630.85040283203125 632.902587890625 634.9373779296875 635.80279541015625 635.92694091796875 636.4820556640625 636.98095703125 637.626708984375 637.98052978515625 638.024169921875 639.18426513671875 640.9932861328125 640.6561279296875 640.3330078125 641.9393310546875 643.533447265625 644.51214599609375 644.7742919921875 644.76458740234375 645.50079345703125 644 644.4561767578125 645.06341552734375 642.93878173828125 639.26507568359375 636.7099609375 634.8511962890625 634.314453125 634.30926513671875 634.30401611328125 634.29876708984375 634.29351806640625 634.34478759765625 634.2872314453125 633.0693359375 630.56280517578125 630.16412353515625 633.35113525390625 636.20892333984375 634.98577880859375 633.56695556640625 632.923828125 631.0374755859375 627.67041015625 619.5181884765625 609.6759033203125 605.32513427734375 603.19342041015625 598.88555908203125 594.10150146484375 588.91644287109375 583.24139404296875 576.621337890625 568.50115966796875 556.32513427734375 548.65728759765625 545.10980224609375 545.11199951171875 545.1141357421875 545.1163330078125 545.11846923828125 545.12371826171875 545.85418701171875 551.0390625 558.5811767578125 567.78106689453125 576.3997802734375 581.0616455078125 582.943603515625 587.385498046875 593.7744140625 597.7862548828125 596.93597412109375 592.4375 591.93121337890625 594.1395263671875 601.63885498046875 611.05706787109375 618.06134033203125 621.59515380859375 614.901611328125 605.61077880859375 600.67706298828125 596.79833984375 592.2962646484375 591.3287353515625 593.92022705078125 599.50372314453125 605.88006591796875 607.4915771484375 607.44952392578125 607.832763671875 609.9549560546875 613.708251953125 616.01971435546875 619.09014892578125 624.3828125 630.17095947265625 631.2838134765625 631.523681640625 633.35968017578125 633.11505126953125 632.7940673828125 634.15228271484375 636.30352783203125 637.80780029296875 638.33856201171875 637.54949951171875 634.1959228515625 628.553955078125 621.98974609375 616.760498046875 611.8358154296875 611.83367919921875 611.83148193359375 611.829345703125 611.8271484375 617.89361572265625 624.919921875 627.14935302734375 625.27398681640625 620.87847900390625 615.4896240234375 612.956787109375 610.150634765625 607.4375
570.2281494140625 571.1282958984375 571.7850341796875 568.771484375 567.0426025390625 570.13427734375 574.92657470703125 576.927978515625 578.19482421875 581.88250732421875 584.66009521484375 585.06689453125 585.35076904296875 583.138671875 579.32110595703125 576.16705322265625 573.4697265625 573.18304443359375 575.5994873046875 580.01824951171875 585.44000244140625 592.0777587890625 598.4874267578125 602.125244140625 603.1046142578125 603.29730224609375 603.18841552734375 603.6248779296875 607.12579345703125 611.6741943359375 614.5831298828125 616.82000732421875 619.58526611328125 622.87298583984375 625.83160400390625 628.30718994140625 629.74908447265625 630.8446044921875 632.29705810546875 635.182373046875 636 636 636.46893310546875 637 637.02996826171875 639.22564697265625 639.9622802734375 640.08306884765625 640.78973388671875 639.67987060546875 639.3585205078125 641.38067626953125 642.87860107421875 642.7535400390625 642.651123046875 642.60211181640625 643.51080322265625 643.643798828125 643.42889404296875 642.24761962890625 640.13525390625 637.79742431640625 637.45330810546875 636.8515625 635.1173095703125 634.6846923828125 634.34088134765625 634.296630859375 634.2913818359375 634.2861328125 633.30718994140625 632.41302490234375 631.28179931640625 631.6583251953125 635.0958251953125 639.0361328125 639.28826904296875 636.85076904296875 634.32135009765625 634.00848388671875 633.94952392578125 628.22998046875 619.49652099609375 614.9957275390625 610.736083984375 604.943603515625 599.95611572265625 595.45819091796875 589.04107666015625 583.89117431640625 575.32196044921875 560.70806884765625 551.68646240234375 545.10455322265625 545.10675048828125 545.10894775390625 545.111083984375 545.1163330078125 545.68536376953125 550.7547607421875 557.1839599609375 564.947998046875 574.0545654296875 581.643798828125 587.23541259765625 591.52630615234375 595.6976318359375 600.6429443359375 601.6885986328125 596.0587158203125 592.4342041015625 588.6278076171875 591.0616455078125 600.00244140625 608.8714599609375 614.244873046875 614.2896728515625 610.16009521484375 603.51873779296875 598.1380615234375 591.0286865234375 586.1495361328125 583.65673828125 585.61224365234375 592.2265625 596.9212646484375 600.10174560546875 600.85931396484375 604.1318359375 608.75830078125 613.20751953125 616.11114501953125 620.8753662109375 626.24554443359375 627.7496337890625 626.72955322265625 627.774169921875 629.52685546875 629.59246826171875 629.64862060546875 630.8489990234375 633.24346923828125 634.87176513671875 635.927490234375 635.56451416015625 632.69195556640625 628.54278564453125 623.348876953125 618.134033203125 613.4525146484375 611.83892822265625 611.83673095703125 611.83453369140625 614.7257080078125 622.743408203125 628.615234375 631.343017578125 630.92724609375 626.09393310546875 621.21929931640625 621.21728515625 621.33941650390625 621.3028564453125
