ncols        116
nrows        45
xllcorner    345338.87224
yllcorner    6754569.87337
cellsize     30.000000000000
NODATA_value  -99999
611.71343994140625 608.8551025390625 606.1082763671875 605.50689697265625 604.95721435546875 605.2039794921875 600.987060546875 591.41546630859375 585.0589599609375 582.89990234375 585.9833984375 589.117919921875 588.971923828125 590.181884765625 592.13873291015625 596.06158447265625 599.79461669921875 603.85040283203125 608.20025634765625 614.47247314453125 619.3524169921875 622.31011962890625 625.785888671875 627.42620849609375 626.18426513671875 626.675537109375 627.7381591796875 629.20465087890625 631.63079833984375 633 631.32794189453125 627.11834716796875 622.63031005859375 617.85906982421875 615.052734375 611.9114990234375 608.676513671875 608.220458984375 609.97222900390625 614.07794189453125 620.2125244140625 625.3470458984375 628.64447021484375 631.1734619140625 630.6756591796875 630.84649658203125 632.3868408203125 633.7476806640625 633.20831298828125 632.67974853515625 633.22686767578125 633.58282470703125 632.361083984375 630.37274169921875 629.115966796875 629.20062255859375 627.6029052734375 623.53265380859375 620.5518798828125 616.6981201171875 616.327880859375 619.61541748046875 623.17926025390625 627.5447998046875 631.4302978515625 635.2158203125 639.461181640625 641.43017578125 640.71795654296875 640.77734375 642.42327880859375 641.98223876953125 639.8909912109375 636.71905517578125 633.18377685546875 629.292724609375 625.85479736328125 622.18572998046875 621.23114013671875 622.86163330078125 622.983642578125 624.00421142578125 626.00982666015625 627.07763671875 626.59814453125 628.95123291015625 633.8226318359375 638.24432373046875 637.4649658203125 631.35675048828125 625.36822509765625 620.69232177734375 616.55364990234375 614.37066650390625 614.36541748046875 614.36016845703125 614.35491943359375 614.3497314453125 614.344482421875 614.34228515625 614.34014892578125 614.33795166015625 614.3358154296875 614.3336181640625 614.3358154296875 618.087158203125 623.20819091796875 625.54498291015625 624.89141845703125 623.4329833984375 623.6207275390625 624.75408935546875 626.94921875 627.9691162109375 628.73779296875 627.23944091796875
622.8865966796875 617.6087646484375 614.29931640625 610.11895751953125 605.457763671875 602.7542724609375 597.6937255859375 589.84466552734375 586.42926025390625 590.5858154296875 598.531494140625 600.8199462890625 597.7545166015625 595.608642578125 596.132080078125 599.00213623046875 602.84307861328125 605.7120361328125 608.6268310546875 613.66485595703125 618.42974853515625 620.5755615234375 622.8699951171875 624.83197021484375 623.2052001953125 622.79132080078125 624.07763671875 626.55517578125 629.8023681640625 631.13226318359375 630.30291748046875 627.4697265625 622.77825927734375 617.03271484375 611.61932373046875 608.263671875 608.2130126953125 608.2152099609375 610.58428955078125 614.45538330078125 621.43243408203125 626.13909912109375 629.18719482421875 628.566650390625 627.29083251953125 628.414306640625 631.10272216796875 633.97833251953125 635.1412353515625 635.37652587890625 636.256591796875 637.08447265625 634.6964111328125 630.45355224609375 628.68359375 627.72381591796875 626.04693603515625 622.4825439453125 619.588134765625 617.2567138671875 616.30084228515625 619.375244140625 622.14971923828125 626.88372802734375 630.47784423828125 632.1016845703125 634.186279296875 635.5328369140625 634.87847900390625 635.6888427734375 636.4931640625 635.5257568359375 632.73291015625 631.084228515625 629.935791015625 628.96942138671875 626.75970458984375 625.44696044921875 625.6153564453125 626.60614013671875 627.1014404296875 628.55126953125 629.68865966796875 629.1529541015625 627.925537109375 629.07110595703125 634.28985595703125 638.96051025390625 636.81817626953125 631.6497802734375 625.72125244140625 621.5576171875 617.50830078125 614.36846923828125 614.36328125 614.3580322265625 614.352783203125 614.3475341796875 614.34228515625 614.33709716796875 614.33489990234375 614.332763671875 614.33056640625 614.328369140625 614.33056640625 618.87322998046875 623.3048095703125 624.0966796875 621.615478515625 618.2755126953125 618.3427734375 619.6173095703125 620.9381103515625 623.18975830078125 624.242431640625 623.1170654296875
628.70068359375 625.7205810546875 621.972412109375 616.57672119140625 608.31396484375 600.90240478515625 593.50244140625 589.1185302734375 590.19415283203125 599.45904541015625 608.19482421875 609.674560546875 606.02703857421875 601.6785888671875 600.7982177734375 602.61956787109375 607.58099365234375 611.875 614.0396728515625 616.728271484375 619.9384765625 621 622.13934326171875 622.70465087890625 620.79180908203125 619.118408203125 619.5289306640625 621.66131591796875 624.67529296875 626.787841796875 628.08172607421875 627.39459228515625 622.916259765625 617.08111572265625 610.3828125 608.20562744140625 608.207763671875 610.0960693359375 611.980712890625 615.95977783203125 623.28515625 628.87347412109375 631.01739501953125 627.35162353515625 623.97552490234375 625.596923828125 630.056640625 634.544189453125 637.143310546875 636.971923828125 637.6072998046875 639.32672119140625 636.92059326171875 632.510986328125 629.47698974609375 627.63128662109375 624.10791015625 620.374267578125 617.75341796875 615.53607177734375 616.09088134765625 618.2574462890625 619.68634033203125 622.3096923828125 624.66436767578125 625.6920166015625 626.70947265625 628.45745849609375 628.8896484375 629.750244140625 629.59185791015625 628.39569091796875 627.66912841796875 627.277587890625 626.3013916015625 626.61419677734375 627.09307861328125 627.1376953125 628.1741943359375 629.34527587890625 630.4539794921875 631.49169921875 632 631.803955078125 630.830078125 631.78570556640625 635.2442626953125 639.31097412109375 636.7239990234375 633.0545654296875 627.926513671875 623.0755615234375 619.6322021484375 615.496337890625 614.361083984375 614.3558349609375 614.3505859375 614.34539794921875 614.34014892578125 614.33489990234375 614.32965087890625 614.3275146484375 614.3253173828125 614.32318115234375 614.3253173828125 619.58441162109375 622.57220458984375 622.18756103515625 618.41424560546875 613.8045654296875 613.28240966796875 614.33599853515625 615.62322998046875 618.01885986328125 620.363525390625 620.00335693359375
631.46527099609375 631.33502197265625 628.05230712890625 621.09320068359375 609.94757080078125 600.17132568359375 593.41656494140625 591.84246826171875 600.3023681640625 610.22613525390625 615.84796142578125 616.1541748046875 613.34454345703125 609.75347900390625 608.232177734375 609.21661376953125 613.6302490234375 618.03631591796875 619.7596435546875 619.87432861328125 619.607666015625 619.74542236328125 620.28448486328125 619.6160888671875 617.5263671875 616.24139404296875 615.82220458984375 616.56256103515625 618.06884765625 621.215576171875 624.5780029296875 625.84881591796875 622.7781982421875 616.73907470703125 609.92645263671875 608.20037841796875 609.23138427734375 612.60107421875 614.93121337890625 619.00042724609375 624.97467041015625 629.139892578125 629.85955810546875 625.84576416015625 620.9759521484375 622.8568115234375 629.24090576171875 634.979248046875 637.6239013671875 637.28070068359375 637.814697265625 639.0614013671875 637.27215576171875 632.41204833984375 629.3800048828125 626.8641357421875 623.03082275390625 618.73223876953125 615.83013916015625 614.32916259765625 614.28271484375 615.31573486328125 615.6219482421875 616.76708984375 618.2825927734375 620.8489990234375 622.76959228515625 623.11175537109375 623.0433349609375 623.96466064453125 624.58697509765625 622.9349365234375 623.26220703125 624.30462646484375 624.86181640625 626.19451904296875 627.56396484375 627.86895751953125 628.865478515625 629.8912353515625 630.96014404296875 631.66986083984375 631.80548095703125 633.310791015625 635.583984375 637.0494384765625 638.6737060546875 639.1182861328125 637.22076416015625 633.9212646484375 629.6317138671875 624.0230712890625 620.02288818359375 617.14532470703125 614.35888671875 614.35369873046875 614.34844970703125 614.34320068359375 614.33795166015625 614.332763671875 614.3275146484375 614.322265625 614.320068359375 614.31793212890625 614.69403076171875 618.982666015625 620.91552734375 619.6309814453125 615.75054931640625 611.54931640625 609.576904296875 608.814208984375 609.62225341796875 612.5848388671875 616.51971435546875 617.885498046875
632.77569580078125 632.4173583984375 628.34759521484375 620.116455078125 611.56903076171875 602.933349609375 593.592529296875 595.99072265625 606.03851318359375 616.572265625 621.23297119140625 622.24810791015625 619.58221435546875 616.462646484375 617.32061767578125 618.74737548828125 619.92724609375 622.40496826171875 622.90185546875 620.5311279296875 617.6697998046875 617.39007568359375 617.395751953125 616.18157958984375 613.72320556640625 612.8221435546875 612.67877197265625 612.30499267578125 612.7130126953125 615.090576171875 618.87823486328125 621.544921875 620.84954833984375 615.4205322265625 609.14080810546875 608.19512939453125 611.595947265625 615.49859619140625 617.658203125 620.29949951171875 623.65570068359375 625.18511962890625 625.17620849609375 622.39300537109375 619.4998779296875 621.94915771484375 628.090087890625 632.9962158203125 636.79193115234375 636.78814697265625 634.73626708984375 634.387451171875 630.84906005859375 628.04620361328125 626.2130126953125 623.8818359375 620.49127197265625 616.06988525390625 612.4781494140625 611.48565673828125 612.24505615234375 613.24932861328125 613.251708984375 613.63299560546875 615.11968994140625 618.2855224609375 620.7406005859375 620.40789794921875 619.31243896484375 619.99224853515625 620.17901611328125 620.98785400390625 621.31402587890625 621.94769287109375 623.01715087890625 625.1947021484375 625.8739013671875 626.50372314453125 627.3477783203125 627.721435546875 628.80902099609375 629.3992919921875 630.56060791015625 633.9832763671875 638.8709716796875 641.62347412109375 642.16943359375 640.375 636.7115478515625 633.16748046875 629.163818359375 624.27874755859375 620.3824462890625 618.17498779296875 614.35675048828125 614.35150146484375 614.34625244140625 614.341064453125 614.3358154296875 614.33056640625 614.3253173828125 614.320068359375 614.31488037109375 614.31268310546875 614.66876220703125 616.6307373046875 617.94476318359375 616.26165771484375 612.9205322265625 610.29644775390625 608.10546875 606.00250244140625 605.78436279296875 609.7052001953125 614.28912353515625 616.20635986328125
629.33966064453125 629.9718017578125 625.8436279296875 618.15655517578125 611.387451171875 604.07183837890625 596.56585693359375 598.2247314453125 609.0589599609375 616.90155029296875 622.96820068359375 624.941162109375 623.07672119140625 621.89599609375 623.21221923828125 624.581298828125 624.85772705078125 625.543212890625 623.8836669921875 620.33624267578125 617.15679931640625 616.8145751953125 615.99072265625 613.842529296875 611.29644775390625 610.96044921875 610.25091552734375 608.6856689453125 608.35443115234375 609.56854248046875 612.3155517578125 615.0335693359375 615.7491455078125 612.4501953125 608.187744140625 609.681640625 615.29620361328125 618.2867431640625 618.500244140625 618.9678955078125 619.09478759765625 619.37158203125 619.41302490234375 619.153564453125 619.48681640625 622.35101318359375 625.535400390625 628.36187744140625 631.9295654296875 633.21990966796875 630.82073974609375 627.49139404296875 623.89068603515625 623.2291259765625 621.8609619140625 617.92340087890625 613.30889892578125 609.38409423828125 607.936279296875 608.3642578125 610.1990966796875 612.12457275390625 612.137939453125 612.73028564453125 614.836669921875 617.5916748046875 619.13671875 617.13067626953125 616.18701171875 616.21478271484375 617.35516357421875 619.26593017578125 620.0072021484375 620.41143798828125 622.0281982421875 624.18695068359375 624.19482421875 622.92584228515625 621.74786376953125 623.79052734375 625.50775146484375 625.439697265625 628.20831298828125 632.53692626953125 636.8656005859375 640.717529296875 642.74267578125 642.259521484375 638.23297119140625 633.797119140625 629.36956787109375 626.15667724609375 623.71893310546875 620.9423828125 615.5333251953125 614.35369873046875 614.34844970703125 614.34320068359375 614.33795166015625 614.9281005859375 614.32464599609375 614.31793212890625 614.31268310546875 614.30743408203125 614.6434326171875 614.2115478515625 614.059814453125 612.63555908203125 610.3563232421875 608.36846923828125 606.69293212890625 605.02984619140625 604.8592529296875 609.1357421875 613.81085205078125 615.96563720703125
623.73077392578125 625.05224609375 621.41693115234375 614.8267822265625 608.5938720703125 605.60284423828125 601.60223388671875 606.93975830078125 612.80963134765625 618.22283935546875 623.30316162109375 624.60687255859375 624.0758056640625 624.12322998046875 625.709228515625 627.24481201171875 627.75567626953125 628.4349365234375 626.3458251953125 622.0736083984375 617.96795654296875 616.09735107421875 614.72296142578125 612.56671142578125 611.14501953125 611.20465087890625 609.35186767578125 606.12432861328125 604.69464111328125 605.1710205078125 607.32464599609375 608.4974365234375 608.15380859375 606.98150634765625 606.5382080078125 611.7032470703125 617.3780517578125 619.105712890625 617.49468994140625 614.2469482421875 611.93682861328125 612.30621337890625 612.9454345703125 614.5994873046875 616.622314453125 619.54302978515625 621.0264892578125 621.7071533203125 623.89874267578125 626.15606689453125 624.2520751953125 620.5655517578125 619.29034423828125 619.54840087890625 616.90667724609375 610.7474365234375 604.7034912109375 602.567138671875 602.8372802734375 603.7984619140625 606.489013671875 609.646484375 611.16357421875 611.24359130859375 612.57232666015625 614.8726806640625 614.38128662109375 612.13287353515625 612.86236572265625 614.064208984375 615.33782958984375 617.30877685546875 618.06207275390625 618.850341796875 621.5216064453125 622.98779296875 622.25006103515625 618.75146484375 616.22821044921875 618.47784423828125 623.03448486328125 623.6473388671875 624.7252197265625 628.93011474609375 633.1732177734375 638.23114013671875 642.08538818359375 643.49761962890625 641.5052490234375 636.89739990234375 631.3165283203125 628.240478515625 626.54638671875 623.65631103515625 618.64105224609375 614.3558349609375 614.3505859375 614.98260498046875 615.93792724609375 616.98052978515625 615.8834228515625 614.31573486328125 614.310546875 614.3052978515625 614.300048828125 613.09613037109375 611.7919921875 610.2203369140625 608.432861328125 606.01666259765625 604.303466796875 603.404541015625 603.7208251953125 607.2130126953125 612.14447021484375 614.76934814453125
618.06341552734375 617.62353515625 615.06756591796875 610.12164306640625 606.7540283203125 607.06488037109375 609.97454833984375 614.6383056640625 619.892578125 622.27789306640625 624.7684326171875 625.4779052734375 624.97503662109375 625.18731689453125 627.136474609375 629.26824951171875 630.61419677734375 631.64306640625 630.6641845703125 625.59478759765625 619.3134765625 615.36126708984375 613.99468994140625 613.134521484375 611.82012939453125 612.14678955078125 609.8267822265625 605.17352294921875 602.3619384765625 601.54534912109375 602.87359619140625 602.2861328125 600.76837158203125 601.1646728515625 603.56072998046875 609.319091796875 614.5028076171875 614.78802490234375 612.4105224609375 607.623779296875 605.05987548828125 605.9669189453125 607.12530517578125 609.289794921875 611.8212890625 615.063232421875 615.54901123046875 614.4239501953125 614.64190673828125 616.31268310546875 615.0377197265625 612.9254150390625 614.6165771484375 614.74169921875 609.902099609375 603.71319580078125 598.51702880859375 597.27728271484375 597.8846435546875 600.09967041015625 603.26068115234375 605.0811767578125 606.29888916015625 606.879638671875 607.6629638671875 608.969482421875 607.785888671875 606.6934814453125 608.786865234375 611.8795166015625 615.0223388671875 616.08441162109375 616.11328125 616.88336181640625 619.54144287109375 621.61297607421875 619.95489501953125 616.67724609375 615.16827392578125 616.3819580078125 620.4517822265625 623.236328125 625.4390869140625 628.31036376953125 631.66632080078125 636.5218505859375 640.25506591796875 641.6199951171875 641.517822265625 638.36865234375 634.3475341796875 631.13189697265625 628.5892333984375 625.332763671875 621.77978515625 617.77728271484375 615.55279541015625 617.04022216796875 617.95928955078125 619.30120849609375 618.61541748046875 616.292236328125 614.31268310546875 614.30743408203125 614.53143310546875 614.155517578125 612.4888916015625 609.76165771484375 606.79327392578125 604.236328125 602.53900146484375 601.4683837890625 601.7593994140625 604.8223876953125 609.1485595703125 610.6285400390625
609.8184814453125 608.22540283203125 606.775390625 604.98944091796875 607.5567626953125 612.8289794921875 616.8345947265625 621.30450439453125 625.56207275390625 626.62353515625 627.9154052734375 628.76336669921875 628.23565673828125 628.2216796875 630.3756103515625 631.8526611328125 632.82452392578125 633.841796875 633.07269287109375 627.609619140625 619.91888427734375 616.313232421875 616.65887451171875 616.141845703125 614.65234375 614.34759521484375 611.6126708984375 605.8546142578125 602.47509765625 600.0323486328125 599.4407958984375 598.20391845703125 597.15936279296875 597.66607666015625 599.4825439453125 603.37127685546875 607.1529541015625 607.00579833984375 604.6417236328125 601.24066162109375 599.7093505859375 600.20074462890625 602.07440185546875 604.95306396484375 608.52227783203125 611.44085693359375 610.9693603515625 608.10052490234375 605.8671875 606.39300537109375 606.17718505859375 605.57965087890625 607.06158447265625 606.789306640625 602.47088623046875 596.03955078125 593.11529541015625 593.53076171875 594.46429443359375 597.03240966796875 599.63275146484375 601.6842041015625 602.53643798828125 602.54168701171875 602.54693603515625 603.44244384765625 603.6241455078125 604.580322265625 607.4205322265625 612.21295166015625 615.7657470703125 616 616.0052490234375 616.7711181640625 618.98876953125 620.618896484375 620.318115234375 618.437255859375 616.259765625 615.08966064453125 616.705810546875 621.932373046875 628.10101318359375 631.5848388671875 634.43896484375 637.33123779296875 639.61590576171875 639.91156005859375 640.6309814453125 639.64739990234375 637.36212158203125 633.58331298828125 629.21490478515625 626.02130126953125 623.70074462890625 621.01177978515625 620.18023681640625 618.65997314453125 619.6805419921875 620.4447021484375 620.2322998046875 618.6077880859375 617.540283203125 616.85247802734375 617.22528076171875 617.05682373046875 614.71270751953125 610.3492431640625 605.6685791015625 603.01788330078125 601.36309814453125 599.706787109375 599.7979736328125 602.87060546875 605.3695068359375 604.54443359375
603.6881103515625 600.71759033203125 599.57550048828125 601.67388916015625 610.12445068359375 619.7030029296875 625.295654296875 628.0694580078125 631.1214599609375 630.9324951171875 630.16400146484375 630.44134521484375 629.9039306640625 629.62042236328125 631.34344482421875 631.8634033203125 631.7642822265625 632.79833984375 632.04827880859375 625.56494140625 620.91497802734375 620.0806884765625 620.3421630859375 619.21759033203125 618.5587158203125 618.33056640625 613.96453857421875 608.359375 604.33258056640625 600.156982421875 598.30828857421875 597.3685302734375 597.26312255859375 597.00152587890625 596.99627685546875 597.57928466796875 599.76556396484375 599.92974853515625 597.96514892578125 595.6431884765625 594.0638427734375 593.98382568359375 596.5166015625 601.44732666015625 606.54046630859375 609.32635498046875 607.80230712890625 603.75177001953125 600.416748046875 599.53875732421875 599.39678955078125 599.3172607421875 598.41522216796875 598.0048828125 595.60333251953125 591.36810302734375 590.40802001953125 592.6256103515625 593.896728515625 595.69525146484375 598.5596923828125 601.06634521484375 603.34271240234375 602.5438232421875 602.549072265625 603.2025146484375 605.5323486328125 607.610595703125 610.60345458984375 614.19207763671875 616.815185546875 617.917724609375 618.92388916015625 619.692138671875 619.91351318359375 620.03839111328125 620.0186767578125 616.321533203125 612.55926513671875 610.3515625 612.75738525390625 618.26507568359375 626.70391845703125 633.388916015625 637.7076416015625 640.3292236328125 640.29901123046875 639.0794677734375 638.98883056640625 639.90521240234375 638.92156982421875 634.6971435546875 630.31536865234375 627.28948974609375 624.540771484375 622.97625732421875 624.19818115234375 623.719482421875 621.99407958984375 622.91162109375 623.30889892578125 621.3826904296875 621.6170654296875 622.02301025390625 621.97021484375 620.50634765625 617.55499267578125 611.4149169921875 605.138916015625 601.5960693359375 599.91973876953125 598.380126953125 598.3748779296875 599.7821044921875 600.649658203125 598.64190673828125
599.56591796875 599.56805419921875 599.57025146484375 600.61865234375 613.69366455078125 624.4716796875 629.3436279296875 631.8624267578125 633.968505859375 633.78125 632.40216064453125 630.6412353515625 629.6278076171875 629.64068603515625 630.63427734375 630.97760009765625 630.242919921875 630.85479736328125 629.796875 625.72796630859375 624.60662841796875 624.7620849609375 623.58892822265625 621.85205078125 620.28631591796875 619.65838623046875 616.38250732421875 611.59228515625 606.4781494140625 600.45849609375 597.837890625 597.2705078125 597.71405029296875 598.282958984375 597.42193603515625 596.64154052734375 595.959228515625 594.98028564453125 592.54278564453125 590.59466552734375 589.092041015625 589.02490234375 592.33392333984375 598.85028076171875 605.45928955078125 607.73468017578125 605.58233642578125 601.17413330078125 597.83453369140625 595.53955078125 593.86651611328125 593.95361328125 592.07989501953125 590.63629150390625 589.7900390625 588.4085693359375 589.816162109375 593.28729248046875 595.546142578125 598.05133056640625 601.89276123046875 604.69464111328125 608.1199951171875 606.41156005859375 605.37823486328125 606.09674072265625 609.739501953125 612.57037353515625 614.07843017578125 616.2877197265625 618.6707763671875 621.0179443359375 623.13861083984375 622.0057373046875 619.672607421875 617.18878173828125 615.7274169921875 612.31890869140625 607.91204833984375 606.448486328125 610.12152099609375 618.24163818359375 628.826171875 633.83294677734375 637.632568359375 640.2650146484375 640.9478759765625 638.46142578125 637.931884765625 638.99664306640625 639.29620361328125 636.23187255859375 631.98626708984375 630.01751708984375 627.76416015625 626.72796630859375 626.895263671875 628.05401611328125 627.56280517578125 628.6392822265625 629.48394775390625 627.25836181640625 628.09521484375 628.70159912109375 627.7652587890625 624.69598388671875 619.95965576171875 613.11688232421875 606.4085693359375 601.77264404296875 599.96185302734375 598.79705810546875 598.37274169921875 598.36749267578125 597.6854248046875 595.927978515625
599.5606689453125 599.5628662109375 599.56500244140625 600.8760986328125 614.9840087890625 626.081298828125 632.779052734375 633.95452880859375 633.99957275390625 634 633.39495849609375 631.660888671875 630.5692138671875 630.02386474609375 630 630.71844482421875 630.87445068359375 629.89776611328125 629.39471435546875 627.91131591796875 627.92645263671875 628.49310302734375 626.94195556640625 623.77984619140625 620.2601318359375 618.41558837890625 615.96270751953125 612.425048828125 607.41253662109375 601.03765869140625 597.7738037109375 597.83807373046875 598.7261962890625 599.25238037109375 598.730712890625 597.99664306640625 595.00982666015625 591.89373779296875 588.403564453125 585.87005615234375 586.09735107421875 587.4818115234375 590.83087158203125 596.802490234375 603.35699462890625 604.9462890625 603.35260009765625 599.71075439453125 596.684326171875 593.28240966796875 590.86798095703125 590.33636474609375 588.3343505859375 585.390625 583.8330078125 584.8792724609375 588.74041748046875 594.63140869140625 599.2744140625 603.45684814453125 606.91729736328125 609.4400634765625 612.03704833984375 611.1839599609375 609.59771728515625 610.194091796875 613.2535400390625 616.15045166015625 617.3050537109375 619.69744873046875 622.16448974609375 623.6934814453125 624.16522216796875 620.857666015625 617.06927490234375 613.8074951171875 610.09124755859375 606.39471435546875 603.69708251953125 604.25494384765625 608.53912353515625 618.55584716796875 628.13482666015625 632.90863037109375 636.1751708984375 639.2784423828125 639.98052978515625 638.30010986328125 636.1533203125 637.10137939453125 637.92047119140625 636.898193359375 634.79644775390625 634.12432861328125 632.46728515625 630.88079833984375 631.604736328125 634.1597900390625 637.3189697265625 636.03741455078125 636.9876708984375 635.6807861328125 636.8861083984375 635.97552490234375 633.03607177734375 628.55859375 622.28753662109375 615.325439453125 610.250244140625 606.66448974609375 604.47625732421875 603.4617919921875 602.327392578125 600.30413818359375 597.7650146484375 595.908935546875
599.555419921875 599.5576171875 599.55975341796875 602.56683349609375 614.775146484375 624.4947509765625 629.5115966796875 631.01763916015625 632.22125244140625 634 633.99615478515625 633.6240234375 632.02783203125 630.3656005859375 629.87548828125 629.86688232421875 629.83831787109375 628.69146728515625 628.085693359375 629.1094970703125 630.6669921875 630.80828857421875 627.34539794921875 623.05035400390625 618.7080078125 615.6783447265625 613.106201171875 609.80224609375 606.447998046875 602.0794677734375 599.79412841796875 601.40997314453125 602.31805419921875 600.94183349609375 600.04010009765625 598.234130859375 593.79449462890625 589.60205078125 585.78857421875 583.5360107421875 584.638671875 587.80133056640625 590.49090576171875 594.420166015625 599.00408935546875 601.2720947265625 601.08319091796875 599.3734130859375 597.22393798828125 593.91265869140625 591.505126953125 589.85198974609375 587.63421630859375 583.43634033203125 580.9866943359375 581.12481689453125 587.0428466796875 595.7486572265625 604.392578125 609.762939453125 612.0133056640625 613.54498291015625 613.589599609375 612.85797119140625 612.3228759765625 613.13433837890625 615.8939208984375 618.6322021484375 620.60821533203125 622.8955078125 625.152099609375 624.60223388671875 622.8468017578125 620.11016845703125 616.3477783203125 611.66973876953125 607.450439453125 604.0877685546875 602.31317138671875 603.2503662109375 608.990478515625 617.05584716796875 625.19781494140625 631.244140625 636.12432861328125 639.2530517578125 639.275146484375 637.32281494140625 635.26275634765625 636.19561767578125 637.05389404296875 636.767822265625 637.15924072265625 639.39776611328125 637.92755126953125 634.970947265625 636.15606689453125 639.86767578125 641.79974365234375 641.82171630859375 641.8114013671875 642.356201171875 643.2786865234375 642.8360595703125 638.771240234375 632.7545166015625 627.22454833984375 620.17041015625 616.0784912109375 614.95037841796875 613.14093017578125 610.89471435546875 607.04498291015625 601.34375 597.3814697265625 595.16558837890625
599.5501708984375 599.5523681640625 599.5576171875 605.8177490234375 613.51971435546875 620.97119140625 625.6031494140625 627.92572021484375 630.27197265625 633.58148193359375 636.209228515625 635.823486328125 632.10577392578125 628.84259033203125 627.27301025390625 627.68328857421875 627.94195556640625 626.17279052734375 626.8521728515625 627.37701416015625 629.42755126953125 629.1080322265625 625.1942138671875 621.61724853515625 617.7490234375 613.51080322265625 610.30615234375 607.6083984375 606.38787841796875 605.00299072265625 604.99542236328125 607.17828369140625 607.12158203125 603.69256591796875 600.59539794921875 597.6973876953125 593.6239013671875 589.77947998046875 585.56463623046875 583.53076171875 584.06622314453125 586.3468017578125 588.8492431640625 591.899169921875 595.80560302734375 598.86834716796875 600.13580322265625 600.05780029296875 598.479736328125 595.9974365234375 593.96466064453125 591.96954345703125 590.1793212890625 585.493408203125 580.9814453125 580.97930908203125 585.6712646484375 596.01727294921875 606.61627197265625 612.50469970703125 613.921630859375 613.69696044921875 611.9403076171875 611.1368408203125 611.6326904296875 612.42962646484375 615.4613037109375 619.35357666015625 621.6185302734375 623.5869140625 625.04345703125 623.1163330078125 620.17791748046875 617.62542724609375 613.88201904296875 610.2237548828125 606.662841796875 603.63543701171875 601.50634765625 602.9722900390625 607.88922119140625 614.8277587890625 622.1983642578125 628.3082275390625 633.22723388671875 635.75103759765625 636.08135986328125 634.425048828125 636.71234130859375 637.16937255859375 638.0350341796875 638.416259765625 640.39532470703125 642.66015625 642.0245361328125 638.65411376953125 639.90313720703125 645.62823486328125 646.3831787109375 646.0877685546875 645.87579345703125 646.54522705078125 646.374755859375 646.90087890625 644.53607177734375 639.32513427734375 632.68389892578125 627.200439453125 623.81982421875 622.76812744140625 621.2767333984375 618.4412841796875 611.37664794921875 601.22271728515625 595.9437255859375 593.5518798828125
599.54498291015625 599.5501708984375 600.1749267578125 607.18719482421875 612.9144287109375 619.95501708984375 624.33453369140625 626.7708740234375 628.3887939453125 632.917724609375 636.95782470703125 635.55560302734375 630.74267578125 626.3779296875 624.39202880859375 625.4937744140625 626.823974609375 625.94122314453125 624.9034423828125 625.15228271484375 626.22119140625 625.3841552734375 621.563232421875 619.153076171875 616.87152099609375 613.85791015625 608.911376953125 607.3482666015625 607.05517578125 608.79638671875 611.48138427734375 613.17730712890625 612.2755126953125 607.75445556640625 602.70208740234375 598.73126220703125 595.82000732421875 593.35418701171875 588.53692626953125 584.3612060546875 583.52337646484375 583.8431396484375 585.4283447265625 589.324951171875 593.938720703125 597.25506591796875 599.57598876953125 600.34735107421875 598.81829833984375 596.3836669921875 594.853515625 593.722900390625 592.15435791015625 587.59027099609375 582.16119384765625 580.97406005859375 585.14666748046875 595.036376953125 604.9381103515625 610.54107666015625 609.2352294921875 607.53936767578125 606.09027099609375 607.11834716796875 608.3677978515625 609.38055419921875 612.9239501953125 617.677490234375 620.75042724609375 621.70611572265625 622.6214599609375 620.5440673828125 617.88104248046875 614.5001220703125 610.5390625 607.1864013671875 605.2958984375 603.04449462890625 600.58367919921875 602.0478515625 607.7239990234375 615.2252197265625 621.3243408203125 625.858154296875 628.852783203125 630.5455322265625 631.91314697265625 633.61480712890625 635.900146484375 638.93017578125 639.22711181640625 640.3204345703125 642.24761962890625 644.53302001953125 645.08953857421875 643.8304443359375 644.0609130859375 646.875732421875 648.7518310546875 648.02813720703125 648.7432861328125 649.156982421875 647.832763671875 647.64996337890625 648.46453857421875 644.464599609375 638.04058837890625 633.54608154296875 630.73388671875 628.60931396484375 626.14154052734375 622.61865234375 616.3026123046875 605.634765625 598.29302978515625 594.03045654296875
599.54278564453125 604.07244873046875 609.59234619140625 611.08111572265625 615.21087646484375 620.96002197265625 625.04864501953125 626.07977294921875 626.29376220703125 627.852783203125 630.13787841796875 630.3392333984375 626.89031982421875 624.54034423828125 624.38677978515625 625.468017578125 626.003173828125 624.9088134765625 624.3658447265625 624.360595703125 624.35791015625 623.2431640625 620.1368408203125 618.06732177734375 617.997314453125 616.7535400390625 613.733642578125 610.90087890625 611.61163330078125 613.64215087890625 617.57513427734375 619.30230712890625 615.88983154296875 612.20703125 607.2144775390625 602.1251220703125 600.0347900390625 597.6531982421875 592.46636962890625 586.904541015625 583.54034423828125 582.01690673828125 582.6492919921875 586.323486328125 590.20440673828125 593.26861572265625 596.41607666015625 598.5242919921875 597.525634765625 594.75592041015625 592.99822998046875 592.27154541015625 590.40240478515625 585.98193359375 582.43115234375 580.25885009765625 583.591064453125 592.38226318359375 601.2808837890625 605.41473388671875 601.69091796875 598.89501953125 599.57659912109375 602.173828125 603.3892822265625 605.1795654296875 609.92559814453125 615.15313720703125 618.2886962890625 619.4404296875 619.81219482421875 618.39715576171875 615.4747314453125 610.72406005859375 608.29437255859375 604.602294921875 602.16424560546875 600.83795166015625 599.4495849609375 601.05328369140625 610.81378173828125 618.49383544921875 623.0321044921875 624.1839599609375 625.34521484375 627.44439697265625 630.17547607421875 631.89080810546875 633.91656494140625 637.31353759765625 639.98193359375 640.3077392578125 642.20599365234375 644.98883056640625 646.59405517578125 647.0299072265625 647.10107421875 648.08502197265625 648.2493896484375 648.50714111328125 649.60797119140625 649.4281005859375 647.195068359375 645.97021484375 647.11456298828125 645.693603515625 641.0003662109375 638.057373046875 636.32647705078125 634.34930419921875 630.7646484375 625.997802734375 621.36199951171875 613.6256103515625 605.112548828125 597.937255859375
614.9189453125 619.85919189453125 620.03887939453125 619.49786376953125 621.223388671875 624.20098876953125 627.06072998046875 628.3927001953125 626.93798828125 625.15045166015625 624.81549072265625 624.86322021484375 624.39508056640625 624.389892578125 624.3846435546875 624.37939453125 624.3741455078125 624.368896484375 624.36370849609375 624.35845947265625 624.35321044921875 624.188232421875 623.15020751953125 622.0072021484375 620.6561279296875 620.44921875 619.41748046875 616.999267578125 618.1705322265625 617.0576171875 619.04412841796875 620.90826416015625 617.7484130859375 613.802490234375 611.51727294921875 606.97357177734375 604.406982421875 600.3768310546875 594.6488037109375 588.89166259765625 583.65283203125 580.66717529296875 580.054443359375 582.5277099609375 584.93463134765625 587.1505126953125 591.32379150390625 595.11248779296875 595.47607421875 592.48187255859375 589.2684326171875 587.32598876953125 584.81134033203125 580.4393310546875 578.31719970703125 576.834716796875 579.88702392578125 588.33795166015625 596.71551513671875 598.89068603515625 594.902587890625 592.3868408203125 594.13726806640625 596.244384765625 598.75006103515625 602.48529052734375 608.47705078125 614.25738525390625 616.88421630859375 616.55706787109375 616.25457763671875 616.34259033203125 613.00018310546875 608.7841796875 606.10345458984375 601.486572265625 597.9298095703125 597.47576904296875 597.46484375 601.20123291015625 611.31243896484375 619.15631103515625 620.99774169921875 622.61309814453125 624.08856201171875 626.2662353515625 627.90899658203125 629.03143310546875 630.9775390625 634.36273193359375 637.33551025390625 638.6502685546875 641.19354248046875 644.46234130859375 646.58587646484375 647.694580078125 648.82720947265625 650.78985595703125 651.113037109375 651.34686279296875 652.1680908203125 651.4022216796875 648.69189453125 646.0223388671875 645.86309814453125 646.26727294921875 643.8427734375 643.55029296875 643.54937744140625 641.89410400390625 637.542236328125 632.00567626953125 628.61529541015625 623.50653076171875 615.99957275390625 605.19097900390625
624.25421142578125 629.33343505859375 629.9232177734375 629.72259521484375 629.18218994140625 629.2735595703125 630.08380126953125 631.27484130859375 629.5794677734375 625.64447021484375 624.40771484375 624.40252685546875 624.39727783203125 624.39202880859375 624.38677978515625 624.38153076171875 624.3763427734375 624.37109375 624.3658447265625 624.360595703125 624.6636962890625 626.020751953125 626.0733642578125 626.136474609375 625.52630615234375 625.32110595703125 624.309326171875 622.5233154296875 623.2523193359375 621.7139892578125 620.52471923828125 620.1754150390625 616.93408203125 613.037353515625 611.8656005859375 612.479736328125 607.77716064453125 602.73431396484375 596.01239013671875 589.115966796875 583.06451416015625 578.83392333984375 577.29034423828125 577.4151611328125 579.32122802734375 581.09320068359375 586.3006591796875 591.64154052734375 593.8170166015625 590.1212158203125 584.875 581.30450439453125 576.94091796875 573.1724853515625 572.81353759765625 573.6954345703125 577.79150390625 585.614013671875 591.9027099609375 591.45233154296875 587.6883544921875 586.28680419921875 588.645751953125 591.3341064453125 595.62579345703125 601.2091064453125 607.30810546875 612.96441650390625 614.1474609375 612.75836181640625 612.35699462890625 613.117431640625 610.802734375 606.16668701171875 602.417724609375 596.71978759765625 593.268798828125 594.13043212890625 595.84698486328125 599.12188720703125 607.126220703125 614.26617431640625 618.9136962890625 620.7059326171875 621.84674072265625 623.06329345703125 624.16705322265625 625.87750244140625 628.764404296875 631.3338623046875 634.002685546875 638.42120361328125 643.3980712890625 646.4027099609375 647.547607421875 648.65631103515625 650.52716064453125 651.87567138671875 652.95428466796875 653.192626953125 654 653.23297119140625 650.12481689453125 647.4110107421875 646.96319580078125 647.66986083984375 646.37530517578125 646.09002685546875 646.60455322265625 644.76318359375 640.820556640625 637.32763671875 635.03839111328125 631.37677001953125 624.24029541015625 614.87554931640625
628.27587890625 634.247314453125 635.75054931640625 635.1812744140625 633.2825927734375 631.4931640625 630.933837890625 631.78509521484375 630.14801025390625 626.76031494140625 625.64459228515625 624.97796630859375 624.3994140625 624.39422607421875 624.38897705078125 624.38372802734375 624.37847900390625 624.37322998046875 624.3680419921875 624.3658447265625 625.6109619140625 627.80316162109375 628.99652099609375 629.62506103515625 630.0684814453125 630.1466064453125 628.33892822265625 626.4600830078125 627.52276611328125 624.578369140625 620.94921875 618.1549072265625 613.54888916015625 609.7283935546875 609.72320556640625 611.45343017578125 609.7083740234375 604.134521484375 596.70587158203125 588.85797119140625 583.2279052734375 579.30621337890625 576.853515625 576.8482666015625 576.84307861328125 576.92938232421875 581.34259033203125 587.14556884765625 590.46026611328125 587.277099609375 582.138671875 576.36712646484375 570.0611572265625 567.61566162109375 570.1357421875 574.5113525390625 579.99346923828125 585.4393310546875 587.819580078125 584.7315673828125 580.08477783203125 579.71875 582.7283935546875 586.00225830078125 591.87738037109375 598.66229248046875 604.3978271484375 608.53692626953125 608.8570556640625 607.08514404296875 607.60223388671875 609.82086181640625 608.30877685546875 604.04974365234375 600.300048828125 593.58740234375 592.24005126953125 592.2421875 593.05126953125 595.60247802734375 601.47955322265625 609.2379150390625 615.56072998046875 617.93701171875 618.99267578125 620.50726318359375 621.95123291015625 623.12359619140625 627.35064697265625 630.19879150390625 633.69696044921875 638.8411865234375 645.3140869140625 648.34063720703125 649.99267578125 651.55108642578125 651.9696044921875 652.83538818359375 652.98724365234375 653.12127685546875 653.91961669921875 653.22930908203125 650.60107421875 647.39630126953125 646.878173828125 646.9754638671875 646.90472412109375 645.9171142578125 645.29925537109375 642.5908203125 639.4986572265625 638.29339599609375 638.1087646484375 635.49072265625 629.4595947265625 620.89483642578125
631.87664794921875 636.7886962890625 637.99847412109375 636.21917724609375 633.67138671875 631.08953857421875 630.9390869140625 631.17425537109375 629.453125 627.82958984375 627.79541015625 628.87603759765625 629.48846435546875 628.5576171875 628.2030029296875 627.60009765625 627.44482421875 627.59832763671875 626.68524169921875 625.6839599609375 625.6129150390625 627.41796875 628.994873046875 631.1640625 632.68756103515625 633.8096923828125 632.2117919921875 628.9871826171875 627.26263427734375 623.17486572265625 618.83526611328125 615.57147216796875 610.90069580078125 609.72625732421875 609.72100830078125 609.71575927734375 611.519287109375 606.99688720703125 599.05645751953125 591.900634765625 588.30230712890625 585.445556640625 582.3558349609375 579.52557373046875 576.84088134765625 576.83563232421875 578.35565185546875 581.67303466796875 584.64508056640625 584.14129638671875 580.3165283203125 571.9676513671875 565.1407470703125 564.08349609375 569.9464111328125 577.44390869140625 582.32275390625 584.4180908203125 583.47265625 578.56768798828125 573.64581298828125 573.371337890625 575.42279052734375 579.09051513671875 585.16253662109375 593.20849609375 598.10809326171875 600.05487060546875 600.69000244140625 600.48211669921875 601.96771240234375 605.55010986328125 605.0465087890625 602.05096435546875 598.8702392578125 593.62103271484375 592.23480224609375 592.24005126953125 592.2452392578125 594.371337890625 599.26727294921875 606.4622802734375 612.83416748046875 616.83587646484375 618.442138671875 619.640625 621.33154296875 623.94488525390625 627.4183349609375 630.8310546875 634.5208740234375 639.458740234375 645.4097900390625 649.26702880859375 651.9420166015625 653.52069091796875 653.207763671875 652.1917724609375 651.04132080078125 650.1854248046875 651.516357421875 652.61553955078125 650.68499755859375 648.59185791015625 646.93048095703125 646.87078857421875 646.2513427734375 645.09210205078125 643.42108154296875 639.5555419921875 638.12139892578125 638.11614990234375 639.01739501953125 637.45281982421875 632.46417236328125 623.808837890625
632.9547119140625 636.7039794921875 637.9459228515625 635.98236083984375 633.20745849609375 631.68426513671875 631.6466064453125 631.748779296875 630.7032470703125 630.4796142578125 632.43841552734375 635.1881103515625 636.322021484375 634.52630615234375 631.7581787109375 630.61236572265625 630.60418701171875 629.87115478515625 627.87615966796875 626.709716796875 625.697021484375 625.62030029296875 627.99200439453125 631.15985107421875 633.9912109375 635.74560546875 634.21258544921875 629.844482421875 625.73828125 619.39410400390625 614.6658935546875 611.29437255859375 609.80645751953125 609.7283935546875 609.72320556640625 609.72100830078125 611.68487548828125 609.833984375 603.94073486328125 599.89410400390625 598.86370849609375 596.54736328125 592.2335205078125 587.55078125 581.30682373046875 577.32305908203125 576.8282470703125 576.92218017578125 579.2325439453125 579.6650390625 575.91064453125 566.97869873046875 561.0760498046875 562.3406982421875 570.56365966796875 578.2442626953125 580.344970703125 579.53717041015625 576.64727783203125 571.1904296875 567.443603515625 567.1165771484375 568.1654052734375 572.51177978515625 577.5587158203125 584.5914306640625 589.02178955078125 590.336669921875 591.37408447265625 593.3720703125 595.04498291015625 598.843994140625 599.5322265625 597.84991455078125 595.7957763671875 592.22735595703125 592.23260498046875 592.23785400390625 592.24310302734375 595.6282958984375 599.67877197265625 606.66741943359375 613.6787109375 617.92791748046875 619.198974609375 620.718505859375 622.33892822265625 625.535888671875 629.0787353515625 632.55792236328125 636.2935791015625 640.7691650390625 645.06158447265625 648.80364990234375 652.06134033203125 653.6260986328125 653.2784423828125 650.64404296875 649.169921875 649.186279296875 650.2730712890625 651.35223388671875 652.00360107421875 651.49639892578125 650.4373779296875 648.7108154296875 647.37152099609375 646.30316162109375 644.62139892578125 640.53521728515625 638.12359619140625 638.12139892578125 638.6710205078125 637.7247314453125 633.33453369140625 625.67071533203125
630.5272216796875 635.0601806640625 636.41717529296875 634.5660400390625 632.027587890625 631.69036865234375 631.53790283203125 630.73712158203125 630.92523193359375 634.098388671875 638.11590576171875 641.42022705078125 643.15557861328125 640.0994873046875 634.6639404296875 631.56927490234375 630.3663330078125 630.02197265625 628.8448486328125 627.69696044921875 626.36334228515625 625.62554931640625 626.5296630859375 630.854736328125 634.93609619140625 635.99072265625 634.2926025390625 630.6820068359375 624.46868896484375 616.839111328125 612.09423828125 609.7410888671875 609.73583984375 609.7305908203125 609.7283935546875 610.2847900390625 611.51544189453125 611.37420654296875 609.53076171875 609.3592529296875 608.1632080078125 605.00537109375 600.31689453125 594.33831787109375 587.62298583984375 581.37335205078125 576.0545654296875 573.38677978515625 573.955322265625 573.9683837890625 569.85601806640625 561.25054931640625 558.765869140625 561.969970703125 570.9993896484375 576.2647705078125 575.30206298828125 572.19122314453125 568.1304931640625 563.339111328125 561.390380859375 563.053955078125 565.30352783203125 569.20477294921875 572.32720947265625 576.74871826171875 581.89373779296875 583.92584228515625 585.06488037109375 587.894287109375 589.99310302734375 592.843994140625 593.861083984375 592.2147216796875 592.219970703125 592.2252197265625 592.23046875 592.23565673828125 592.24090576171875 596.7081298828125 600.54595947265625 606.90301513671875 614.8465576171875 619.05194091796875 619.85064697265625 621.02435302734375 623.07574462890625 626.59600830078125 630.82891845703125 635.1915283203125 639.90374755859375 644.722412109375 646.69708251953125 648.32537841796875 651.15948486328125 652.72369384765625 652.38812255859375 651.88165283203125 649.23248291015625 648.99725341796875 649.50836181640625 651.3328857421875 652.42083740234375 652.99359130859375 652.40313720703125 652.12103271484375 650.621826171875 650.11138916015625 647.74676513671875 643.8363037109375 641.16278076171875 640.4649658203125 639.7479248046875 637.55743408203125 632.972900390625 627.271728515625
627.27227783203125 631.84967041015625 633.21881103515625 631.36700439453125 628.6278076171875 628.18756103515625 628.37725830078125 627.4764404296875 629.16424560546875 635.5540771484375 640.48272705078125 645.03778076171875 646.66082763671875 642.83642578125 637.27203369140625 633.0882568359375 629.8697509765625 629.169921875 628.93829345703125 627.97528076171875 627.80010986328125 627.64935302734375 628.6541748046875 632.08624267578125 635.87188720703125 636.23858642578125 633.52081298828125 629.75384521484375 622.79632568359375 615.9161376953125 612.26837158203125 610.14813232421875 609.73797607421875 609.73583984375 609.733642578125 614.44866943359375 616.68194580078125 619.22509765625 620.47796630859375 618.4066162109375 614.80938720703125 609.04962158203125 603.62567138671875 598.12646484375 591.0067138671875 583.0430908203125 574.836181640625 570.35693359375 569.18505859375 568.9827880859375 565.0810546875 558.7628173828125 558.7606201171875 560.123779296875 569.14544677734375 573.54180908203125 570.2449951171875 565.1522216796875 560.8167724609375 557.42596435546875 557.81488037109375 561.977783203125 566.7391357421875 570.771728515625 572.57745361328125 575.37030029296875 580.3406982421875 582.973876953125 584.68511962890625 587.5946044921875 590.55889892578125 591.9827880859375 592.20733642578125 592.21258544921875 592.21783447265625 592.2230224609375 592.228271484375 592.2335205078125 595.2474365234375 598.6343994140625 602.05926513671875 607.47113037109375 615.75738525390625 619.5784912109375 619.5718994140625 620.633544921875 622.88818359375 627.284912109375 632.52081298828125 637.21630859375 642.0118408203125 646.6041259765625 649.4730224609375 650.0557861328125 651.8614501953125 653.46484375 654.40283203125 654.671875 652.72296142578125 648.99200439453125 649.03131103515625 649.73504638671875 651.06097412109375 652.0513916015625 654.77947998046875 657.3861083984375 657.234375 654.363037109375 653.0909423828125 651.11865234375 646.7066650390625 644.80718994140625 642.06201171875 636.19989013671875 630.39306640625 628.300537109375
625.4119873046875 628.93585205078125 629.03955078125 626.060791015625 622.98114013671875 622.65740966796875 623.45989990234375 623.88824462890625 627.51092529296875 634.93634033203125 640.05682373046875 645.02252197265625 646.3182373046875 642.51812744140625 637.85791015625 634.94873046875 632.1943359375 629.42987060546875 629.74322509765625 629.6619873046875 629.6884765625 630.31597900390625 631.986572265625 633.8603515625 635.6649169921875 634.6904296875 632.43389892578125 629.75604248046875 622.99951171875 617.17156982421875 614.93707275390625 614.9512939453125 613.92401123046875 611.18218994140625 613.07318115234375 617.46356201171875 623.11663818359375 627.48162841796875 629.12152099609375 626.79248046875 619.330078125 611.6009521484375 604.8372802734375 597.82696533203125 590.85333251953125 581.080078125 574.11474609375 569.1824951171875 566.63201904296875 565.78802490234375 562.7037353515625 558.7606201171875 558.75537109375 559.118896484375 565.76873779296875 568.733642578125 565.0264892578125 559.8326416015625 556.69207763671875 555.84332275390625 557.976806640625 563.5274658203125 570.11163330078125 575.978759765625 580.0531005859375 582.74188232421875 586.587646484375 589.11395263671875 590.94683837890625 594.5941162109375 598.36944580078125 599.236572265625 596.886474609375 592.2147216796875 592.219970703125 592.2252197265625 593.8050537109375 596.72857666015625 600.4931640625 603.77362060546875 605.45526123046875 610.7523193359375 617.7335205078125 620.5845947265625 620.505615234375 621.53631591796875 623.766357421875 627.62451171875 632.28912353515625 637.43304443359375 641.6260986328125 646.6629638671875 649.4422607421875 650.07464599609375 651.9730224609375 655.41278076171875 656.6566162109375 656.73004150390625 655.671630859375 650.5223388671875 648.5770263671875 648.57489013671875 649.88800048828125 652.46771240234375 657.44610595703125 661.2630615234375 660.3800048828125 658.25 658.7811279296875 656.43743896484375 652.24359130859375 647.690185546875 643.4383544921875 635.29461669921875 630.0323486328125 629.1036376953125
622.19134521484375 623.3753662109375 622.22247314453125 619.33721923828125 617.1951904296875 617.73822021484375 619.85528564453125 623.24462890625 629.9239501953125 636.6142578125 641.05242919921875 645.7769775390625 646.00482177734375 641.67120361328125 636.81756591796875 634.16455078125 631.32818603515625 628.6453857421875 630.63446044921875 632.2978515625 631.63726806640625 632.05810546875 633.6441650390625 635.7738037109375 636.279541015625 633.924560546875 631.47210693359375 628.9835205078125 623.366943359375 619.364501953125 618.18023681640625 619.28106689453125 619.34228515625 617.68048095703125 617.00958251953125 620.33221435546875 625.8436279296875 629.3028564453125 630.3197021484375 626.156494140625 618.8753662109375 610.76556396484375 603.03546142578125 597.951904296875 590.363525390625 581.624267578125 574.8856201171875 570.23443603515625 567.5264892578125 565.819580078125 563.438720703125 561.32342529296875 559.25457763671875 558.74798583984375 560.70294189453125 560.3988037109375 558.072021484375 555.95550537109375 555.2427978515625 555.730224609375 559.5694580078125 567.1002197265625 575.4150390625 584.3179931640625 591.89453125 596.04217529296875 599.0557861328125 600.30047607421875 602.08270263671875 607.12725830078125 610.3868408203125 609.2662353515625 605.2406005859375 598.44268798828125 595.08953857421875 595.22021484375 597.38604736328125 600.73748779296875 605.3739013671875 608.8143310546875 609.4561767578125 612.450927734375 619.20361328125 622.0240478515625 623.001220703125 623.6666259765625 625.5262451171875 628.133544921875 630.39898681640625 633.83709716796875 638.9495849609375 643.39410400390625 645.42333984375 646.97509765625 651.08795166015625 655.2584228515625 656.72808837890625 656.35675048828125 655.26385498046875 652.51800537109375 649.28692626953125 648.56964111328125 651.7469482421875 656.57965087890625 661.60675048828125 664.4954833984375 664.0721435546875 663.82586669921875 662.76373291015625 660.1732177734375 655.5316162109375 649.68798828125 643.12664794921875 636.701416015625 631.7469482421875 630.44219970703125
616.195068359375 616.68560791015625 616.15484619140625 616.16009521484375 616.16534423828125 616.89666748046875 619.7694091796875 626.00897216796875 633.99066162109375 638.95806884765625 641.9962158203125 644.8759765625 644.45062255859375 639.7037353515625 634.31646728515625 630.44287109375 627.1981201171875 625.8409423828125 629.8341064453125 632.26861572265625 632.6112060546875 632.32470703125 633.84033203125 636.03125 635.87188720703125 632.41387939453125 628.9510498046875 627.16357421875 622.948974609375 621.78338623046875 621.7269287109375 622.2425537109375 622.33477783203125 620.66204833984375 619.23858642578125 623.01666259765625 627.6802978515625 628.96978759765625 627.41094970703125 620.81622314453125 613.71075439453125 607.15264892578125 601.82183837890625 597.26739501953125 590.706787109375 584.68212890625 579.509521484375 576.1435546875 572.849365234375 570.22808837890625 566.53173828125 564.1346435546875 561.88861083984375 558.771484375 555.2288818359375 555.23101806640625 555.23321533203125 555.2353515625 555.237548828125 555.23968505859375 559.0321044921875 568.880615234375 580.53271484375 591.906982421875 601.62841796875 608.2822265625 610.48284912109375 610.51580810546875 613.27838134765625 618.13519287109375 619.064208984375 615.16070556640625 610.82098388671875 604.718017578125 600.241943359375 598.43267822265625 600.22564697265625 604.15203857421875 608.75323486328125 611.2073974609375 611.095703125 612.9775390625 619.84771728515625 624.59539794921875 626.56585693359375 626.47613525390625 627.07763671875 627.6527099609375 627.83941650390625 630.4063720703125 635.81182861328125 639.2918701171875 640.5386962890625 642.59429931640625 646.98394775390625 650.84466552734375 652.12847900390625 653.20343017578125 654.7764892578125 653.78717041015625 651.70904541015625 648.56439208984375 650.89117431640625 655.05780029296875 661.45184326171875 665.8857421875 667.524169921875 666.16510009765625 664.7813720703125 662.3626708984375 658.51800537109375 652.3135986328125 645.18267822265625 640.99560546875 638.9215087890625 636.0709228515625
611.56884765625 614.6942138671875 617.70159912109375 620.20330810546875 621.2401123046875 621.760009765625 623.3946533203125 628.6180419921875 635.576904296875 639.10821533203125 640.98211669921875 643.426025390625 642.251220703125 636.96923828125 630.76861572265625 625.717529296875 623.34747314453125 622.817138671875 625.9476318359375 629.1209716796875 630.81353759765625 631.53118896484375 633.020751953125 634.7926025390625 634.65350341796875 631.39154052734375 627.78558349609375 626.23468017578125 625.614501953125 625.743896484375 626.49981689453125 626.224609375 624.7994384765625 623.2388916015625 622.8260498046875 625.30389404296875 627.78533935546875 627.4873046875 623.08258056640625 617.4481201171875 609.680419921875 604.683837890625 601.47808837890625 598.9718017578125 594.42291259765625 588.82275390625 586.24005126953125 583.814453125 582.1949462890625 579.3782958984375 573.8741455078125 569.27825927734375 564.66156005859375 560.0216064453125 555.2236328125 555.22576904296875 555.22796630859375 555.23016357421875 555.2322998046875 555.237548828125 560.153076171875 571.14361572265625 583.84747314453125 594.39068603515625 605.25872802734375 615.18768310546875 618.5567626953125 618.951171875 621.435546875 624.34051513671875 623.39361572265625 618.31744384765625 613.43817138671875 608.23175048828125 603.57269287109375 600.99310302734375 602.79925537109375 607.22027587890625 610.6337890625 612.2786865234375 613.13055419921875 616.13525390625 623.90771484375 628.32025146484375 629.01422119140625 627.898193359375 627.194580078125 625.86614990234375 624.50164794921875 626.1964111328125 631.38128662109375 634.6248779296875 636.22503662109375 639.7020263671875 643.23272705078125 645.76544189453125 646.35028076171875 647.752685546875 650.534423828125 650.6793212890625 649.10595703125 646.40313720703125 647.935791015625 652.2281494140625 657.8115234375 663.54217529296875 666.609619140625 666.170166015625 664.02008056640625 661.51275634765625 658.72052001953125 655.686279296875 649.6103515625 646.44024658203125 645.415283203125 642.87591552734375
613.47064208984375 618.649658203125 623.8818359375 628.18896484375 629.527587890625 628.82415771484375 628.27252197265625 630.47979736328125 634.3876953125 636.43145751953125 638.51611328125 642.131591796875 639.81390380859375 634.25518798828125 626.96319580078125 622.342529296875 621.4124755859375 621.29803466796875 623.29522705078125 626.01373291015625 628.8709716796875 630.76971435546875 632.48583984375 634.09124755859375 635.34515380859375 633.44287109375 630.135009765625 628.62957763671875 628.54345703125 628.9730224609375 630.76397705078125 631.03759765625 628.61920166015625 626.15106201171875 625.7821044921875 626.697021484375 627.82958984375 625.7620849609375 622.3692626953125 619.36651611328125 615.60107421875 609.66265869140625 606.64373779296875 604.2020263671875 599.37158203125 593.01849365234375 591.8580322265625 593.3328857421875 592.17095947265625 590.8587646484375 587.44012451171875 580.39666748046875 571.85772705078125 562.106201171875 555.2183837890625 555.2205810546875 555.22271728515625 555.22491455078125 555.5849609375 560.00616455078125 567.1556396484375 576.72515869140625 587.25433349609375 596.27398681640625 607.71502685546875 618.90667724609375 624.61456298828125 626.24847412109375 627.01727294921875 627.68206787109375 625.5810546875 619.746337890625 614.75494384765625 609.9481201171875 606.06842041015625 603.88543701171875 606.8470458984375 610.80230712890625 612.96759033203125 614.6636962890625 617.20880126953125 621.81866455078125 628.76885986328125 631.589599609375 630.23712158203125 627.52459716796875 625.07220458984375 621.96923828125 620.9906005859375 622.666015625 625.9443359375 629.95263671875 632.7401123046875 636.69256591796875 639.9217529296875 640.06585693359375 639.754638671875 641.11834716796875 642.76202392578125 642.78729248046875 641.26910400390625 643.156494140625 645.7515869140625 650.48406982421875 655.93951416015625 660.3466796875 662.94073486328125 662.58966064453125 660.371826171875 658.11968994140625 657.113037109375 656.9404296875 655.4111328125 652.738525390625 650.64630126953125 647.78204345703125
620.18780517578125 624.41485595703125 628.633056640625 632.52996826171875 634.19439697265625 633.8621826171875 632.26409912109375 632.23004150390625 633.22283935546875 633.79364013671875 636.45159912109375 638.04962158203125 635.21881103515625 630.09881591796875 624.35546875 621.06524658203125 619.89788818359375 619.64727783203125 621.32666015625 624.4361572265625 627.6651611328125 629.84283447265625 632.2056884765625 635.4312744140625 637.88006591796875 637.388671875 634.6881103515625 632.48956298828125 632.288818359375 632.57080078125 633.8382568359375 634.532470703125 632.99169921875 629.8360595703125 628.0975341796875 628.59942626953125 628.9063720703125 627.5174560546875 623.54052734375 621.91705322265625 621.10882568359375 617.99798583984375 613.67144775390625 610.04547119140625 604.57275390625 598.23175048828125 598.31207275390625 598.4022216796875 595.7987060546875 595.2987060546875 593.22998046875 587.022705078125 575.48907470703125 562.73809814453125 555.213134765625 555.21533203125 555.21746826171875 556.96319580078125 560.98876953125 566.78759765625 573.91363525390625 581.9810791015625 591.2353515625 599.2672119140625 611.247802734375 622.016845703125 627.8226318359375 629.67120361328125 628.60467529296875 626.71429443359375 623.3138427734375 617.27923583984375 612.68939208984375 610.07940673828125 609.00830078125 608.93939208984375 612.03790283203125 614.67095947265625 616.35858154296875 617.69940185546875 620.82958984375 626.2882080078125 632.43182373046875 633.90948486328125 629.939208984375 625.508544921875 621.560546875 618.48223876953125 618.47430419921875 619.3323974609375 620.21893310546875 623.7178955078125 626.50897216796875 630.65264892578125 633.72149658203125 633.12921142578125 632.658935546875 633.744873046875 633.592041015625 634.07537841796875 634.78564453125 638.32708740234375 643.22174072265625 649.2532958984375 653.891845703125 656.50604248046875 659.01788330078125 659.4151611328125 657.503662109375 656.94921875 656.40155029296875 656.39630126953125 656.91510009765625 655.77423095703125 653.01483154296875 649.76873779296875
624.63922119140625 627.52197265625 631.4761962890625 634.67498779296875 636.005859375 637.1981201171875 636.42919921875 634.92431640625 634.2017822265625 634.54376220703125 635.31195068359375 633.45208740234375 628.411376953125 624.65264892578125 621.46136474609375 619.0198974609375 618.1881103515625 618.19024658203125 619.9100341796875 623.32073974609375 625.85174560546875 627.81976318359375 631.38909912109375 635.12646484375 638.64837646484375 639.5975341796875 638.44439697265625 637.10394287109375 637.802001953125 638.70391845703125 638.75823974609375 637.71868896484375 635.688232421875 632.8917236328125 630.3880615234375 629.86248779296875 629.90264892578125 625.832763671875 619.55126953125 616.61419677734375 617.18780517578125 616.57269287109375 614.83642578125 613.9818115234375 610.97845458984375 607.46917724609375 602.07904052734375 598.58331298828125 593.40008544921875 592.1802978515625 590.33282470703125 584.465576171875 572.967529296875 558.9051513671875 555.20794677734375 555.2100830078125 557.049072265625 562.48175048828125 568.12200927734375 573.2596435546875 578.2564697265625 587.21820068359375 596.4222412109375 604.99432373046875 614.2093505859375 623.274658203125 628.52294921875 628.384521484375 625.05841064453125 621.9195556640625 618.13946533203125 612.689453125 608.855712890625 609.21380615234375 611.47412109375 613.74761962890625 615.675048828125 617.6156005859375 619.29583740234375 620.27215576171875 622.4571533203125 627.57928466796875 633.54669189453125 634.08135986328125 629.25482177734375 623.1253662109375 617.7137451171875 615.08331298828125 614.91607666015625 614.973388671875 614.4559326171875 617.5775146484375 620.59429931640625 622.14764404296875 624.420654296875 624.84503173828125 625.7205810546875 626.22320556640625 626.56158447265625 628.2010498046875 630.48193359375 634.68743896484375 639.52435302734375 645.45947265625 650.330078125 653.889404296875 657.34527587890625 658.83489990234375 659.47882080078125 658.7266845703125 658.65118408203125 658.42657470703125 657.9102783203125 656.87567138671875 653.49835205078125 649.85540771484375
625.4825439453125 628.04840087890625 632.6116943359375 636.21832275390625 637.59332275390625 639.810791015625 640.40167236328125 638.39923095703125 636.424560546875 635.58056640625 633.87249755859375 629.96533203125 624.53582763671875 621.15606689453125 618.67791748046875 618.1806640625 618.182861328125 618.1881103515625 618.42547607421875 621.00518798828125 623.27984619140625 625.50860595703125 629.48541259765625 633.7825927734375 636.81195068359375 638.74566650390625 639.61627197265625 640.81854248046875 642.0877685546875 642.868896484375 641.32861328125 639.31103515625 636.0853271484375 633.804443359375 631.00262451171875 628.71514892578125 627.5098876953125 622.0758056640625 613.28717041015625 611.4385986328125 611.76171875 612.69415283203125 613.61627197265625 614.634521484375 614.19537353515625 610.607666015625 603.566162109375 593.84429931640625 588.5308837890625 586.58209228515625 582.68798828125 575.83148193359375 565.40557861328125 556.684814453125 555.20269775390625 555.34222412109375 563.55535888671875 571.0255126953125 579.24896240234375 583.6658935546875 588.1129150390625 596.08154296875 604.92071533203125 610.8292236328125 614.91424560546875 620.84698486328125 623.44720458984375 621.57623291015625 617.87939453125 614.8095703125 611.145751953125 607.38311767578125 605.48724365234375 608.38543701171875 611.34619140625 614.8585205078125 617.51025390625 620.2364501953125 621.63153076171875 621.96600341796875 622.41748046875 626.1134033203125 630.06536865234375 630.4818115234375 626.92919921875 620.42559814453125 613.86700439453125 610.5469970703125 609.21368408203125 608.9420166015625 609.08953857421875 612.790283203125 615.33392333984375 615.6136474609375 616.09283447265625 617.0545654296875 618.214599609375 619.46051025390625 620.042236328125 622.525146484375 627.2979736328125 632.23614501953125 636.3155517578125 641.84930419921875 646.79498291015625 651.5032958984375 656.0390625 659.91705322265625 662.3167724609375 663.212646484375 662.90472412109375 660.73553466796875 658.14892578125 656.53857421875 654.12579345703125 650.81768798828125
625.87628173828125 627.95831298828125 632.131591796875 636.05706787109375 638.2347412109375 640.60028076171875 642 640.4361572265625 637.02752685546875 634.39642333984375 631.4925537109375 626.41552734375 622.69183349609375 619.779541015625 618.17327880859375 618.17547607421875 618.1806640625 618.1859130859375 618.191162109375 619.9364013671875 622.3040771484375 624.904052734375 628.924072265625 632.6363525390625 635.37554931640625 638.44146728515625 640.96484375 643.70556640625 643.75531005859375 643.045166015625 641.35504150390625 638.03369140625 634.15936279296875 631.92340087890625 629.44384765625 626.24920654296875 622.50848388671875 617.6231689453125 611.79388427734375 609.87750244140625 609.546142578125 610.20166015625 612.2779541015625 614.0357666015625 613.30560302734375 609.6995849609375 601.0260009765625 591.47601318359375 583.43170166015625 580.7979736328125 576.02490234375 567.68511962890625 561.55279541015625 556.25042724609375 555.19744873046875 562.07427978515625 572.7562255859375 579.68023681640625 586.74652099609375 592.40728759765625 598.34619140625 604.3572998046875 610.55755615234375 611.77618408203125 611.9830322265625 613.34808349609375 613.77398681640625 610.93157958984375 606.8812255859375 603.588623046875 601.0545654296875 600.3717041015625 602.89605712890625 607.7537841796875 611.76385498046875 615.8724365234375 619.898681640625 622.94671630859375 623.8165283203125 622.89697265625 621.442138671875 622.91326904296875 625.15728759765625 625.8055419921875 623.23663330078125 617.107666015625 610.28741455078125 605.85748291015625 603.62420654296875 603.2294921875 605.0333251953125 608.18341064453125 609.99298095703125 609.63385009765625 609.42608642578125 609.434326171875 609.7598876953125 610.96630859375 612.306884765625 614.605712890625 620.73675537109375 626.50128173828125 632.82171630859375 638.76666259765625 644.08258056640625 649.4080810546875 655.2410888671875 660.11627197265625 663.48211669921875 664.697265625 663.39886474609375 660.2310791015625 656.98822021484375 654.7567138671875 653.498779296875 649.6915283203125
626.27508544921875 627.90911865234375 631.3472900390625 634.6685791015625 636.8330078125 639.23944091796875 640.7158203125 639.2003173828125 635.00006103515625 631.63348388671875 627.779052734375 622.2662353515625 619.8604736328125 618.999755859375 618.16802978515625 618.17327880859375 618.17852783203125 618.18377685546875 619.4464111328125 622.794921875 625.7691650390625 626.85791015625 628.779052734375 631.9014892578125 635.73699951171875 639.40692138671875 642.1173095703125 643.41754150390625 642.5714111328125 640.5523681640625 638.4725341796875 635.632080078125 631.825927734375 628.28607177734375 625.63336181640625 622.0120849609375 616.94488525390625 612.94580078125 610.12176513671875 609.10125732421875 608.13922119140625 606.0411376953125 606.64044189453125 608.14715576171875 607.68463134765625 604.825439453125 598.08978271484375 587.8505859375 580.04180908203125 575.96441650390625 569.89593505859375 561.0147705078125 553.9708251953125 552.63751220703125 557.32989501953125 568.00018310546875 578.17681884765625 585.0704345703125 592.118408203125 597.75213623046875 602.23846435546875 605.2813720703125 606.33642578125 605.8199462890625 606.10302734375 604.478271484375 601.3177490234375 597.68890380859375 594.3817138671875 592.51422119140625 591.762451171875 595.3466796875 602.1551513671875 610.47088623046875 616.1844482421875 621.027099609375 623.4884033203125 625.20062255859375 625.76531982421875 624.22772216796875 620.85809326171875 619.77447509765625 622.0701904296875 622.7576904296875 619.63848876953125 613.19281005859375 606.934326171875 602.52337646484375 600.3106689453125 600.0556640625 602.00555419921875 603.78265380859375 604.615966796875 604.67388916015625 604.395751953125 603.48583984375 602.75531005859375 602.801025390625 604.338134765625 607.00531005859375 613.53179931640625 619.96307373046875 626.53240966796875 634.18695068359375 640.49041748046875 645.48858642578125 651.25616455078125 657.40582275390625 660.57635498046875 660.8441162109375 658.8818359375 656.8341064453125 653.16912841796875 650.6920166015625 648.97857666015625 644.96697998046875
626.45361328125 627.88092041015625 630.78814697265625 632.9805908203125 634.6290283203125 636.088623046875 637.18743896484375 635.56243896484375 631.83062744140625 627.97967529296875 623.54443359375 618.5313720703125 617.57611083984375 618.16064453125 618.30865478515625 618.54571533203125 619.70953369140625 620.88623046875 623.2662353515625 627.9725341796875 629.5938720703125 628.73468017578125 630.05865478515625 633.53448486328125 637.63037109375 640.32977294921875 641.46478271484375 641.63824462890625 640.00128173828125 636.85552978515625 633.94110107421875 631.36053466796875 627.90185546875 623.24224853515625 618.42120361328125 614.0965576171875 610.716796875 608.13494873046875 607.6124267578125 607.57061767578125 604.59893798828125 601.37286376953125 600.304443359375 601.91473388671875 601.85113525390625 599.0625 592.4981689453125 581.65576171875 575.74249267578125 568.52703857421875 560.5521240234375 552.79656982421875 548.351806640625 550.89898681640625 560.206298828125 569.86273193359375 579.762939453125 586.67987060546875 591.38140869140625 593.563232421875 595.3504638671875 598.4356689453125 598.06390380859375 597.8486328125 596.88458251953125 593.4617919921875 587.066162109375 586.4136962890625 586.5228271484375 587.89996337890625 590.3392333984375 596.083740234375 605.96343994140625 615.275390625 622.4891357421875 626.1280517578125 626.7779541015625 627.48046875 627.48779296875 624.84271240234375 620.67413330078125 617.94110107421875 619.27880859375 619.3770751953125 615.34698486328125 609.2041015625 603.5791015625 600.2294921875 600.04827880859375 600.0504150390625 600.0526123046875 600.8780517578125 600.99462890625 601.48248291015625 601.9122314453125 601.27008056640625 600.0748291015625 600.080078125 600.08526611328125 602.62310791015625 609.1898193359375 616.03814697265625 622.48712158203125 629.59283447265625 635.8277587890625 640.67608642578125 646.30828857421875 652.81488037109375 655.92449951171875 655.258544921875 652.8330078125 649.57171630859375 645.82843017578125 643.8636474609375 642.09320068359375 638.97247314453125
626.35809326171875 627.8182373046875 630.04400634765625 631.45635986328125 631.9490966796875 632.01513671875 632.23492431640625 630.7591552734375 627.5574951171875 624.38372802734375 620.57427978515625 617.5687255859375 617.57086181640625 618.0662841796875 619.86322021484375 621.70599365234375 624.2259521484375 626.52734375 629.1988525390625 632.76287841796875 632.48590087890625 631.0562744140625 633.44830322265625 637.12896728515625 639.7227783203125 640.84808349609375 640.55938720703125 639.3201904296875 636.5595703125 632.33966064453125 629.24432373046875 627.23541259765625 623.01715087890625 616.84765625 611.3758544921875 606.90106201171875 604.00213623046875 603.83056640625 604.50604248046875 603.62506103515625 601.04345703125 595.86651611328125 592.2281494140625 592.53216552734375 593.72528076171875 592.88629150390625 586.1005859375 576.63128662109375 568.0406494140625 557.05548095703125 549.37030029296875 545.68292236328125 546.2470703125 551.93212890625 561.9345703125 571.113525390625 575.17987060546875 579.51788330078125 584.1683349609375 585.31048583984375 584.9669189453125 587.53228759765625 588.112060546875 586.301513671875 585.7152099609375 582.75213623046875 580.4891357421875 583.56658935546875 589.71307373046875 592.7584228515625 596.38421630859375 603.73284912109375 612.9237060546875 621.076416015625 627.1351318359375 628.94659423828125 629.4566650390625 629.974365234375 628.22808837890625 623.9295654296875 619.65142822265625 616.6883544921875 615.480712890625 614.2696533203125 611.2017822265625 605.84503173828125 600.42474365234375 600.0408935546875 600.04302978515625 600.04522705078125 600.04736328125 600.049560546875 600.05169677734375 600.05694580078125 600.26593017578125 600.06744384765625 600.0726318359375 600.077880859375 600.0831298828125 601.2847900390625 606.790283203125 612.77899169921875 618.02691650390625 625.50347900390625 631.26123046875 636.13275146484375 642.5167236328125 648.76824951171875 652.366455078125 650.88385009765625 646.81109619140625 642.74554443359375 640.14752197265625 639.3572998046875 636.75286865234375 633.11285400390625
628.09002685546875 628.284912109375 629.34271240234375 629.37713623046875 629.35064697265625 628.8226318359375 627.47613525390625 625.56884765625 622.755126953125 621.0703125 618.91961669921875 617.5634765625 617.672119140625 619.90289306640625 622.48199462890625 626.25823974609375 629.83935546875 632.65264892578125 634.68792724609375 636.3575439453125 635.51397705078125 634.5924072265625 637.2552490234375 640.0574951171875 641.0723876953125 641.60308837890625 640.52777099609375 636.525390625 632.2296142578125 627.56561279296875 624.4508056640625 622.287353515625 616.49615478515625 610.08782958984375 606.17291259765625 601.3388671875 600.20819091796875 600.39617919921875 600.697021484375 598.8480224609375 596.95849609375 593.208984375 588.54248046875 585.4810791015625 585.2591552734375 584.40423583984375 581.70404052734375 576.8701171875 565.24169921875 550.487060546875 540.00628662109375 539.81683349609375 545.601806640625 551.4688720703125 556.99755859375 563.392578125 566.75616455078125 567.5745849609375 572.07916259765625 574.93206787109375 573.822265625 575.78277587890625 578.9361572265625 579.03338623046875 579.23480224609375 580.48175048828125 582.4404296875 587.8184814453125 597.49176025390625 603.6419677734375 609.01300048828125 615.69342041015625 622.9046630859375 628.94989013671875 630.20965576171875 631.702880859375 632.1876220703125 631.0286865234375 627.458740234375 622.68084716796875 618.86962890625 615.30474853515625 612.73858642578125 610.38555908203125 607.79656982421875 602.7994384765625 600.033447265625 600.03564453125 600.03778076171875 600.03997802734375 600.0421142578125 600.0443115234375 600.049560546875 600.05474853515625 600.05999755859375 600.06524658203125 600.07049560546875 600.07574462890625 600.0809326171875 600.086181640625 604.5618896484375 608.60272216796875 613.6661376953125 620.69696044921875 627.165771484375 632.38897705078125 638.97100830078125 644.8809814453125 648.0777587890625 647.64404296875 643.0450439453125 638.06396484375 635.48370361328125 634.7823486328125 631.552490234375 628.6097412109375
628.75396728515625 628.74072265625 628.04840087890625 627.951171875 627.54156494140625 626.2261962890625 624.24029541015625 622.3607177734375 619.99908447265625 618.52545166015625 617.72119140625 617.5582275390625 619.75921630859375 622.1915283203125 625.60821533203125 629.53765869140625 632.3668212890625 634.36614990234375 636.14410400390625 637.3475341796875 636.98675537109375 636.89080810546875 639.07403564453125 640.44903564453125 640.37542724609375 640.26751708984375 638.906494140625 633.194580078125 627.59881591796875 622.83721923828125 619.99176025390625 616.6336669921875 610.31610107421875 604.3206787109375 601.77142333984375 600.2113037109375 600.2060546875 600.2008056640625 599.12615966796875 597.1905517578125 597.482421875 596.96832275390625 591.32012939453125 586.27349853515625 581.48077392578125 576.42828369140625 572.8118896484375 570.34210205078125 559.87628173828125 541.97930908203125 534.4942626953125 535.77337646484375 539.73199462890625 543.4654541015625 548.2144775390625 551.93707275390625 554.29656982421875 556.6063232421875 560.05645751953125 563.211669921875 564.5338134765625 568.876708984375 574.94891357421875 578.33892822265625 582.09185791015625 590.5543212890625 594.45819091796875 599.841064453125 609.766357421875 616.85137939453125 621.68707275390625 626.32220458984375 631.852294921875 634.42767333984375 633.45343017578125 633.18756103515625 632.6044921875 630.3905029296875 626.04931640625 621.9007568359375 618.60101318359375 615.015869140625 612.48101806640625 609.903564453125 605.591064453125 600.915283203125 600.0281982421875 600.0303955078125 600.03253173828125 600.03472900390625 600.03692626953125 600.0421142578125 600.04736328125 600.0526123046875 600.057861328125 600.06304931640625 600.06829833984375 600.07354736328125 600.07879638671875 600.08404541015625 602.643798828125 607.61541748046875 611.878662109375 619.28253173828125 626.87896728515625 632.7286376953125 638.21661376953125 642.62738037109375 644.716552734375 644.7581787109375 640.950927734375 635.95330810546875 631.40130615234375 629.87615966796875 627.376953125 624.6639404296875
627.81805419921875 628.191650390625 628.65802001953125 627.84197998046875 626.3543701171875 622.97943115234375 619.88909912109375 619.232177734375 617.95709228515625 617.08624267578125 617.291748046875 618.08221435546875 620.32830810546875 623.03863525390625 627.35382080078125 630.81256103515625 632 632.42510986328125 634.09698486328125 635.80889892578125 636.54962158203125 637.7545166015625 639.26580810546875 640 639.29718017578125 637.53375244140625 635.44390869140625 629.48358154296875 622.44708251953125 617.98699951171875 614.76153564453125 610.85162353515625 605.744140625 602.86700439453125 602.53363037109375 600.776123046875 600.31378173828125 603.3338623046875 603.2716064453125 602.16253662109375 602.672119140625 602.80841064453125 599.49755859375 593.20599365234375 582.67889404296875 572.13543701171875 565.17529296875 561.0059814453125 551.60552978515625 540.5345458984375 533.50390625 533.501708984375 533.49957275390625 535.3055419921875 538.89093017578125 539.6446533203125 542.77545166015625 547.418701171875 549.8526611328125 556.73388671875 565.5806884765625 575.04083251953125 582.6141357421875 587.7103271484375 594.7022705078125 602.8177490234375 608.386474609375 613.8155517578125 622.6182861328125 627.2083740234375 630.57843017578125 633.8966064453125 636.7908935546875 637.1865234375 635.55072021484375 634.48175048828125 633.23785400390625 629.93896484375 625.154052734375 621.0745849609375 617.8572998046875 615.6693115234375 612.95977783203125 609.9605712890625 605.4805908203125 601.21917724609375 600.02301025390625 600.025146484375 600.02734375 600.02947998046875 600.03472900390625 600.03997802734375 600.04522705078125 600.0504150390625 600.0556640625 600.0609130859375 600.066162109375 600.0714111328125 600.07659912109375 600.08184814453125 602.89581298828125 607.36260986328125 612.72552490234375 620.929931640625 629.5478515625 635.38372802734375 638.54144287109375 639.6727294921875 640.0157470703125 639.940673828125 637.76141357421875 633.16119384765625 628.93450927734375 627.13983154296875 625.73992919921875 623.31494140625
626.94085693359375 628.93524169921875 630.4927978515625 627.5235595703125 624.98675537109375 619.6929931640625 615.72564697265625 616.087890625 616.337646484375 617.4832763671875 618.52935791015625 618.47564697265625 620.7099609375 623.5401611328125 627.58111572265625 631.38873291015625 632.18994140625 631.37127685546875 632.134521484375 634.1927490234375 636.42333984375 638.7052001953125 640.10284423828125 640.499755859375 639.169677734375 635.57159423828125 631.28094482421875 624.9742431640625 618.79095458984375 614.8338623046875 610.82843017578125 608.12066650390625 606.40704345703125 607.07861328125 608.06475830078125 607.95587158203125 608.45770263671875 611.3499755859375 609.76904296875 606.13568115234375 606.05596923828125 605.28326416015625 602.1055908203125 593.8470458984375 582.18011474609375 571.9566650390625 561.4024658203125 554.19451904296875 547.38385009765625 539.5555419921875 533.7568359375 533.49652099609375 533.49432373046875 533.4921875 533.49432373046875 536.576904296875 542.28570556640625 549.60272216796875 555.55535888671875 568.32232666015625 580.66107177734375 589.09368896484375 595.63885498046875 598.4801025390625 602.39593505859375 609.2216796875 615.7796630859375 620.892822265625 627.56512451171875 632.27862548828125 635.57989501953125 638.422607421875 639 638.143310546875 638.12335205078125 637.7200927734375 636.796142578125 632.9658203125 627.5458984375 621.933837890625 618.0792236328125 615.88250732421875 611.9527587890625 608.580810546875 605.64208984375 601.7896728515625 600.01776123046875 600.0198974609375 600.0220947265625 600.02734375 600.03253173828125 600.03778076171875 600.04302978515625 600.04827880859375 600.05352783203125 600.0587158203125 600.06396484375 600.0692138671875 600.074462890625 600.4478759765625 603.219970703125 606.0335693359375 612.62994384765625 621.60382080078125 630.25439453125 636.20477294921875 637.5235595703125 636.46893310546875 635.1343994140625 634.77239990234375 633.4302978515625 630.26959228515625 627.22491455078125 626.1810302734375 626.20867919921875 624.6356201171875
625.8094482421875 628.87359619140625 629.30682373046875 625.86785888671875 621.073974609375 616.71173095703125 615.4727783203125 615.47802734375 616.9376220703125 619.98095703125 620.42205810546875 619.21319580078125 621.440185546875 624.80926513671875 627.43853759765625 630.75018310546875 631.9154052734375 631.2325439453125 632.00146484375 634.37457275390625 637.268798828125 639.28521728515625 641 640.36358642578125 637.1160888671875 631.86328125 626.62933349609375 621.7208251953125 617.64678955078125 613.6607666015625 611.57025146484375 611.22625732421875 612.82183837890625 614.55633544921875 615.45196533203125 615.03485107421875 616.53857421875 617.57379150390625 612.66961669921875 605.51971435546875 604.8255615234375 602.490234375 595.1607666015625 586.67333984375 577.432861328125 567.21319580078125 557.395751953125 551.42529296875 545.37799072265625 539.052734375 535.0643310546875 533.49432373046875 533.48907470703125 533.4869384765625 533.7452392578125 541.11212158203125 550.2874755859375 560.63519287109375 570.41143798828125 579.93438720703125 587.927978515625 593.55078125 595.6463623046875 597.465576171875 602.162841796875 609.02001953125 616.0767822265625 623.1324462890625 630.64306640625 635.34442138671875 637.94219970703125 638.96612548828125 638.59808349609375 637.60760498046875 638.787841796875 640.55047607421875 639.54351806640625 638.00750732421875 634.69244384765625 626.576171875 619.44647216796875 614.5543212890625 609.8681640625 607.03076171875 603.5872802734375 600.344970703125 600.01251220703125 600.01470947265625 600.0198974609375 600.025146484375 600.0303955078125 600.03564453125 600.0408935546875 600.04608154296875 600.05133056640625 600.05657958984375 600.06182861328125 600.0670166015625 600.072265625 600.0775146484375 602.6744384765625 604.88385009765625 610.76007080078125 620.4554443359375 629.4058837890625 635.40081787109375 635.68597412109375 633.747802734375 631.18487548828125 629.46624755859375 628.86187744140625 628.49560546875 627.35211181640625 626.66748046875 627.5093994140625 627.439208984375
624.1834716796875 626.28375244140625 626.7398681640625 623.29522705078125 617.9625244140625 615.46539306640625 615.62884521484375 616.73760986328125 618.89093017578125 621.894775390625 620.93084716796875 619.22772216796875 621.671875 625.0562744140625 627.07879638671875 629.4815673828125 630.644287109375 631.07598876953125 633.046142578125 636.1728515625 638.62481689453125 639.56341552734375 640.46588134765625 638.522705078125 632.2894287109375 626.0936279296875 622.21923828125 618.87969970703125 615.5401611328125 611.80621337890625 613.04132080078125 617.45294189453125 619.7359619140625 620.5955810546875 619.6451416015625 617.24432373046875 616.74627685546875 615.0001220703125 609.27508544921875 601.19183349609375 596.9656982421875 591.241455078125 583.95526123046875 578.3065185546875 570.4862060546875 561.49932861328125 554.56842041015625 549.634521484375 545.33233642578125 540.79803466796875 537.73681640625 535.9437255859375 534.26739501953125 533.481689453125 537.0938720703125 546.4715576171875 556.9525146484375 566.38287353515625 572.8563232421875 577.93780517578125 583.9290771484375 588.85394287109375 590.80596923828125 593.2789306640625 600.6126708984375 607.135986328125 616.4744873046875 626.91253662109375 636.46319580078125 639.96893310546875 640.34442138671875 638.49505615234375 635.3533935546875 633.61126708984375 636.45062255859375 639.03106689453125 639.8487548828125 639.35699462890625 636.26995849609375 628.869140625 619.8277587890625 612.96697998046875 607.3507080078125 603.99212646484375 600.95953369140625 600.005126953125 600.00726318359375 600.01251220703125 600.01776123046875 600.02301025390625 600.0281982421875 600.033447265625 600.0386962890625 600.0439453125 600.0491943359375 600.05438232421875 600.05963134765625 600.06488037109375 600.07012939453125 600.07537841796875 602.010009765625 603.8153076171875 609.1002197265625 618.8187255859375 628.83172607421875 634.41259765625 634.31158447265625 632.1072998046875 629.142333984375 627.6337890625 627.6285400390625 627.623291015625 628.5211181640625 628.28369140625 628.6416015625 629.1939697265625
622.66558837890625 624.37506103515625 625.2750244140625 621.904541015625 616.12152099609375 614.5947265625 616.39288330078125 617.38543701171875 618.81292724609375 620.88421630859375 620.33905029296875 619.87091064453125 622.65179443359375 624.4984130859375 626.21435546875 628.98858642578125 630.48974609375 632.41278076171875 635.23870849609375 638.452880859375 640.55377197265625 639.9757080078125 639.02484130859375 634.89544677734375 627.265380859375 621.42498779296875 617.8084716796875 614.39813232421875 611.8135986328125 611.81146240234375 612.4517822265625 620.79119873046875 623.4285888671875 621.67388916015625 617.33856201171875 613.81964111328125 611.4945068359375 607.39373779296875 601.71868896484375 593.9588623046875 585.50518798828125 580.3194580078125 575.041015625 569.75390625 564.34344482421875 558.72119140625 553.8551025390625 550.6439208984375 547.94390869140625 545.13897705078125 541.99078369140625 539.0789794921875 535.73663330078125 531.98089599609375 534.80975341796875 545.885009765625 560.48236083984375 567.837890625 568.7725830078125 571.071044921875 576.27398681640625 581.1634521484375 584.269287109375 589.4808349609375 597.5989990234375 607.56341552734375 616.797607421875 628.98187255859375 637.3931884765625 641.042724609375 638.86822509765625 636.05792236328125 631.259521484375 628.869140625 632.5660400390625 637.72430419921875 638.5914306640625 637.4024658203125 633.7548828125 627.99005126953125 619.86407470703125 612.0347900390625 605.911865234375 600.6431884765625 599.9976806640625 599.9998779296875 600.005126953125 600.0103759765625 600.01556396484375 600.02081298828125 600.02606201171875 600.03131103515625 600.0364990234375 600.041748046875 600.0469970703125 600.05224609375 601.51434326171875 600.97430419921875 600.072265625 600.0775146484375 601.86529541015625 604.0865478515625 608.87066650390625 618.3287353515625 628.744140625 634.19781494140625 634.177490234375 633.28228759765625 630.9556884765625 627.63592529296875 627.63067626953125 628.3282470703125 629 629.4588623046875 630.55352783203125 631.1295166015625
619.14813232421875 620.9112548828125 621.15057373046875 618.1466064453125 614.40252685546875 614.251708984375 616.1015625 616.90289306640625 617.57098388671875 619.614990234375 623.07843017578125 623.51165771484375 625.51385498046875 626.7315673828125 628.0194091796875 630.0810546875 632.50518798828125 635.81915283203125 638.11572265625 640.4642333984375 641.225830078125 639.15948486328125 636.30181884765625 629.41949462890625 622.2547607421875 617.63409423828125 612.89727783203125 611.821044921875 611.81884765625 611.81671142578125 613.1573486328125 621.4375 624.39349365234375 621.0062255859375 614.76605224609375 610.19757080078125 607.6256103515625 602.4752197265625 596.69476318359375 589.70635986328125 579.6756591796875 576.8746337890625 572.44659423828125 567.991943359375 565.578369140625 561.891357421875 557.36309814453125 554.8099365234375 554.6708984375 553.18084716796875 549.8900146484375 543.56549072265625 535.95166015625 530.43341064453125 531.76177978515625 543.70654296875 558.97552490234375 564.431640625 563.724609375 564.47711181640625 567.2900390625 572.01361083984375 579.8492431640625 588.02215576171875 597.2078857421875 607.5657958984375 621.095703125 631.57623291015625 637.65447998046875 638.54315185546875 637.39874267578125 635.04132080078125 629.63043212890625 625.51055908203125 628.50274658203125 633.57708740234375 634.96063232421875 633.16571044921875 630.3804931640625 626.375 619.5943603515625 612.700439453125 605.9815673828125 599.99029541015625 599.99249267578125 599.9976806640625 600.0029296875 600.0081787109375 600.013427734375 600.0186767578125 600.02386474609375 600.02911376953125 600.03436279296875 600.03961181640625 600.04486083984375 601.64251708984375 603.903564453125 603.437744140625 601.29974365234375 601.34918212890625 603.80206298828125 605.93365478515625 610.04412841796875 618.46063232421875 628.355712890625 634.39935302734375 635.4954833984375 636.50018310546875 635.66241455078125 633.1796875 631.36712646484375 630.59722900390625 630.30731201171875 631.70367431640625 634.1456298828125 635.0858154296875
610.15020751953125 613.16033935546875 614.20098876953125 613.28179931640625 611.542236328125 612.21636962890625 614.58782958984375 616.3768310546875 617.7508544921875 621.22943115234375 626.69171142578125 628.72772216796875 630.4644775390625 631.7171630859375 631.68682861328125 632.17864990234375 634.89276123046875 637.83660888671875 639.3544921875 640.19610595703125 639.48541259765625 636.75787353515625 631.88775634765625 624.185546875 617.9451904296875 613.71575927734375 611.82843017578125 611.82623291015625 611.8240966796875 611.8218994140625 615.301025390625 622.73504638671875 625.25860595703125 621.9638671875 616.4317626953125 611.08612060546875 608.2872314453125 603.49224853515625 598.40692138671875 593.03448486328125 586.79742431640625 583.70794677734375 580.4034423828125 577.76336669921875 576.75164794921875 573.10675048828125 567.85205078125 564.65081787109375 566.0516357421875 565.16888427734375 559.76629638671875 550.0181884765625 539.07281494140625 530.42816162109375 530.426025390625 540.31219482421875 551.59930419921875 556.56103515625 557.32843017578125 558.78704833984375 562.25201416015625 567.9376220703125 577.22528076171875 588.529296875 598.911865234375 609.962646484375 622.632568359375 630.69970703125 633.4521484375 634.08441162109375 633.51397705078125 631.73236083984375 627.36431884765625 624.2059326171875 623.73480224609375 625.6697998046875 627.02935791015625 625.7730712890625 624.2655029296875 622.97760009765625 619.12249755859375 612.735107421875 605.52740478515625 599.98504638671875 600.15423583984375 600.81866455078125 600.005126953125 600.0103759765625 600.01556396484375 600.0648193359375 601.675048828125 602.31353759765625 601.48150634765625 600.61700439453125 601.70166015625 604.2076416015625 607.25518798828125 607.19317626953125 605.4500732421875 605.61346435546875 606.9495849609375 607.54364013671875 611.19189453125 617.5623779296875 626.54046630859375 633.5909423828125 637.06390380859375 639.7109375 640.13397216796875 639.2493896484375 637.6827392578125 635.4456787109375 634.2879638671875 637.7806396484375 641.73455810546875 641.05096435546875
599.50372314453125 605.88006591796875 607.4915771484375 607.44952392578125 607.832763671875 609.9549560546875 613.708251953125 616.01971435546875 619.09014892578125 624.3828125 630.17095947265625 631.2838134765625 631.523681640625 633.35968017578125 633.11505126953125 632.7940673828125 634.15228271484375 636.30352783203125 637.80780029296875 638.33856201171875 637.54949951171875 634.1959228515625 628.553955078125 621.98974609375 616.760498046875 611.8358154296875 611.83367919921875 611.83148193359375 611.829345703125 611.8271484375 617.89361572265625 624.919921875 627.14935302734375 625.27398681640625 620.87847900390625 615.4896240234375 612.956787109375 610.150634765625 607.4375 604.8348388671875 602.28424072265625 600.0086669921875 598.02557373046875 595.3363037109375 591.81610107421875 587.3577880859375 581.46246337890625 577.72998046875 578.0369873046875 576.6253662109375 569.8101806640625 557.44781494140625 544.561279296875 534.52874755859375 530.4207763671875 534.53466796875 540.8341064453125 544.857177734375 548.588134765625 553.10223388671875 560.0419921875 568.2413330078125 578.55657958984375 590.21673583984375 600.74578857421875 611.64068603515625 620.38818359375 624.85235595703125 626.41815185546875 626.7327880859375 627.20001220703125 624.18914794921875 620.65966796875 618.35992431640625 616.901123046875 616.75518798828125 617.228515625 615.61309814453125 615.4156494140625 618.15863037109375 616.943359375 612.20733642578125 606.2252197265625 601.30059814453125 599.9776611328125 602.0167236328125 602.5819091796875 602.11181640625 602.6737060546875 604.0172119140625 605.31109619140625 606.7325439453125 606.34161376953125 604.89495849609375 603.85601806640625 606.2659912109375 609.14849853515625 609.98236083984375 609.6942138671875 610.2237548828125 610.17486572265625 608.9893798828125 611.62847900390625 617.346923828125 625.37261962890625 633.3111572265625 638.48858642578125 642.43157958984375 643.75537109375 644.72930908203125 643.97821044921875 641.2177734375 639.8736572265625 644.57720947265625 649.55377197265625 648.15753173828125
