ncols        311
nrows        78
xllcorner    347528.87224
yllcorner    6716289.87337
cellsize     30.000000000000
NODATA_value -1
106 109 113 115 116 118 121 121 122 124 125 125 126 128 129 132 134 135 131 126 121 122 127 131 134 138 143 148 152 157 162 167 172 179 189 205 219 232 242 252 262 272 283 294 306 319 332 344 358 368 374 375 371 365 354 341 330 318 308 299 290 279 266 255 250 249 250 251 249 249 251 254 256 254 250 246 245 247 253 262 270 277 281 281 281 282 286 291 297 301 304 307 310 314 315 315 312 309 304 299 297 296 297 296 292 282 267 256 246 236 228 220 207 193 184 174 165 162 165 171 176 183 190 198 203 207 211 217 223 225 227 230 237 238 237 237 241 244 247 250 257 268 276 282 284 282 280 277 273 265 255 246 240 233 227 222 217 211 209 209 209 206 205 205 206 207 204 197 191 187 186 187 189 190 188 184 180 176 174 173 175 175 176 178 180 179 177 174 174 177 177 177 174 172 170 166 163 156 150 146 145 144 143 139 136 134 130 126 123 118 114 113 114 117 119 118 114 109 104 100 100 101 102 103 106 109 111 108 107 106 103 100 99 97 94 92 90 89 89 89 92 94 93 90 88 88 88 89 90 91 91 93 94 95 98 101 106 111 117 124 130 133 133 133 133 133 133 133 134 135 135 134 132 131 131 131 132 132 133 133 130 128 128 126 124 122 120 118 115 112 110 109 106 104 102 100 98 98 100 102 100 98 97 96 95 94 95 96 99 102 104
106 109 114 117 119 121 124 125 126 128 129 130 131 134 138 143 146 142 136 129 122 123 126 130 134 138 145 152 159 165 170 174 180 190 205 220 231 240 251 262 273 283 291 302 314 325 337 350 361 369 372 372 371 363 353 339 327 316 306 296 285 274 261 250 244 243 243 241 239 238 239 243 244 244 242 238 235 238 244 252 260 266 269 272 273 275 280 285 291 294 296 299 302 304 305 307 306 306 302 298 296 295 295 294 291 283 270 256 246 237 230 221 210 198 190 177 163 156 157 162 167 174 182 190 198 204 209 215 219 220 221 224 228 228 226 227 230 234 238 241 249 259 269 278 281 279 277 275 274 271 262 253 246 239 233 228 224 220 217 217 214 210 209 208 209 210 210 207 204 203 200 197 195 195 193 190 186 183 183 185 187 187 189 190 190 189 189 187 188 189 189 188 183 180 176 173 169 163 157 151 149 149 147 145 142 141 136 130 127 123 120 117 119 121 122 120 114 108 104 102 103 105 107 107 109 111 112 111 110 109 107 106 104 101 97 93 91 91 89 89 92 93 92 89 88 88 88 90 91 92 92 93 94 96 99 102 106 111 117 123 128 131 132 131 128 127 127 126 127 127 129 130 130 129 129 129 130 132 133 133 130 128 127 126 124 123 121 118 115 112 111 110 108 106 105 102 99 101 103 104 102 101 99 98 97 97 96 97 100 105 107
107 110 114 117 120 124 127 127 128 130 133 135 138 143 149 157 158 151 141 132 126 126 128 133 139 144 152 160 167 171 176 182 190 202 217 231 240 248 258 269 282 292 297 308 320 329 340 353 365 370 371 371 369 361 348 336 323 313 304 294 284 271 259 250 246 244 243 239 235 232 231 233 234 234 232 230 230 233 238 244 251 254 257 261 264 269 275 280 285 289 290 292 295 296 297 299 299 300 299 296 294 293 294 293 290 283 270 256 247 238 230 220 210 200 191 176 163 155 152 155 158 163 170 180 188 198 204 209 214 216 216 217 219 218 217 219 222 226 230 233 240 249 260 271 276 276 275 275 277 278 272 262 253 246 240 236 232 230 228 226 221 216 216 217 216 215 215 217 218 216 211 205 202 202 202 201 198 193 194 196 198 199 199 199 197 195 195 195 197 199 199 198 194 187 181 177 174 170 166 159 156 154 152 151 148 146 143 138 134 129 127 124 125 127 126 122 116 110 107 106 107 108 109 110 112 114 114 113 113 113 112 110 108 103 98 94 92 91 90 89 90 92 91 88 88 88 88 89 90 92 94 95 96 98 102 104 107 111 117 124 129 131 131 128 124 121 120 118 118 120 122 125 125 126 126 125 127 129 130 131 132 131 129 128 126 124 122 120 117 115 114 113 111 110 108 105 103 103 105 104 103 102 100 100 101 101 99 99 101 105 107
108 111 114 118 123 127 130 129 128 131 135 140 146 151 157 164 166 158 145 135 130 131 134 141 147 154 162 168 171 176 183 193 204 215 227 238 245 254 263 274 286 296 303 314 325 331 341 357 368 372 372 371 369 361 347 334 321 311 304 298 288 274 264 257 254 252 249 245 239 231 228 227 226 224 222 222 222 227 233 237 241 244 246 249 254 261 269 275 280 284 285 285 287 289 290 291 293 293 293 292 290 290 292 291 288 282 270 257 248 238 228 219 210 201 191 175 163 156 152 151 151 154 161 170 179 189 195 199 204 209 211 211 211 210 211 215 218 221 224 227 232 241 249 261 268 272 275 277 279 281 276 268 261 255 249 244 241 240 238 234 228 224 225 226 223 220 220 223 223 221 216 212 211 213 214 214 210 206 206 207 207 207 208 208 205 203 201 201 203 206 208 206 202 193 186 181 177 175 171 165 160 157 155 153 152 152 151 146 139 133 129 129 130 132 130 126 122 116 113 111 110 110 111 112 114 116 116 114 114 114 113 111 109 105 100 95 93 92 90 89 88 89 88 88 88 88 88 89 90 94 97 98 100 103 106 107 109 113 119 125 129 130 129 126 121 116 114 112 113 114 116 118 120 120 119 120 122 124 125 128 132 133 132 131 128 125 122 119 118 116 116 114 112 110 108 107 105 104 104 104 104 103 101 103 105 105 103 101 101 103 106
109 112 116 119 125 130 131 131 130 132 137 144 149 154 159 165 168 160 146 137 132 135 140 149 156 163 169 173 174 181 193 205 216 225 235 243 248 255 267 279 289 297 306 318 329 335 344 360 369 372 374 373 371 362 347 331 320 313 308 301 293 285 278 272 265 259 255 252 245 235 230 226 221 217 217 215 215 219 223 227 229 233 235 238 244 252 261 267 273 277 277 276 277 279 280 283 285 286 286 284 284 286 289 289 287 281 271 261 249 239 230 221 213 203 192 178 164 157 153 150 150 150 156 163 171 179 183 187 193 200 202 202 202 202 203 208 213 216 219 222 226 232 239 248 260 269 274 278 281 281 279 273 268 264 259 254 251 248 245 241 237 234 233 233 230 229 228 228 228 225 221 220 222 223 224 223 220 217 217 217 216 217 218 219 218 216 212 210 212 217 217 213 207 199 190 185 181 178 174 168 164 160 159 158 157 155 154 150 144 138 135 134 136 137 134 131 128 125 121 118 116 114 114 115 117 119 119 117 115 115 113 111 109 106 102 96 92 92 90 88 88 88 88 88 88 88 88 90 92 95 99 101 103 106 107 108 111 116 121 125 127 128 127 123 119 114 110 109 110 111 112 113 115 115 114 115 117 119 123 128 132 133 132 131 128 125 122 119 117 116 115 114 112 109 107 106 105 105 105 106 108 107 105 105 106 106 105 104 103 103 106
112 116 119 123 126 130 131 131 132 134 140 145 149 154 160 166 168 159 147 138 135 137 145 156 163 168 173 176 179 190 205 217 226 234 241 247 250 258 271 284 291 299 308 321 331 339 350 363 373 374 375 373 370 361 345 330 319 316 312 305 298 294 289 280 272 265 259 255 249 242 238 235 225 220 218 215 213 213 214 216 217 220 223 227 234 241 251 257 262 266 266 264 265 266 267 272 275 278 277 276 278 281 284 286 287 283 274 264 253 243 233 225 217 208 197 182 166 160 155 151 150 150 151 155 163 171 174 177 183 189 193 192 192 192 194 197 203 209 213 216 220 224 229 240 254 265 273 277 280 282 281 277 274 272 268 264 261 257 254 250 246 244 243 242 241 241 240 239 240 237 235 234 237 237 236 234 231 228 227 227 226 228 231 232 234 233 228 225 228 231 228 221 212 203 195 189 185 182 178 174 171 166 165 166 163 159 155 151 147 144 144 142 140 139 137 135 132 130 129 128 124 119 117 119 121 123 123 120 118 117 114 112 110 107 103 98 94 92 91 89 88 88 88 88 88 88 88 91 94 96 98 101 103 106 108 109 113 117 121 124 126 126 124 120 116 112 109 108 108 109 110 111 111 110 111 112 113 117 123 129 132 132 131 131 129 125 122 120 118 117 117 116 113 110 108 108 108 108 108 110 113 114 112 110 109 109 108 108 107 106 107
114 118 122 125 126 129 131 133 135 138 143 147 151 157 164 169 167 159 148 141 139 145 155 165 171 174 176 179 185 198 213 225 234 241 247 252 256 263 276 286 293 302 313 324 334 344 356 368 375 376 374 371 367 357 344 331 322 318 316 312 306 300 296 287 278 269 263 259 254 249 248 245 237 229 225 220 216 213 209 207 208 209 213 218 223 230 238 244 248 252 254 253 254 253 255 259 263 268 269 269 271 275 279 283 286 284 276 265 255 245 235 228 222 213 202 186 169 162 159 155 150 150 150 150 157 163 168 171 174 180 183 183 183 183 185 188 193 200 204 208 213 218 224 233 245 260 269 274 278 281 280 278 276 275 273 271 269 267 264 260 257 256 256 255 255 254 253 254 254 254 252 251 254 256 253 247 243 240 238 237 238 242 245 246 247 247 245 242 244 243 239 230 219 211 200 194 190 189 187 184 179 172 172 172 168 163 158 153 151 150 149 145 142 141 140 138 137 135 133 132 128 122 122 123 124 125 125 122 120 119 116 112 109 106 103 101 98 94 92 90 89 88 88 88 88 88 89 91 94 95 97 100 102 105 107 110 114 117 120 123 125 124 121 117 113 110 107 106 106 107 108 108 108 108 109 110 112 116 123 128 130 130 130 130 129 127 124 120 117 117 117 116 114 113 112 112 112 112 111 112 114 115 114 112 112 112 111 110 110 110 110
110 115 120 123 126 129 132 134 137 141 146 151 155 163 169 171 167 159 149 145 149 157 167 175 179 181 181 183 190 204 218 229 239 247 253 258 263 269 280 288 298 309 319 328 337 350 361 371 377 376 372 368 363 354 344 335 327 324 322 320 316 310 305 297 287 277 269 265 261 258 257 252 245 238 232 225 220 215 209 204 202 202 206 209 215 220 225 231 236 241 243 244 244 244 245 249 253 257 258 260 263 268 272 278 281 281 274 264 255 245 234 228 224 217 206 191 175 168 164 160 155 150 150 150 153 157 162 165 167 169 172 173 173 173 174 178 183 190 195 201 209 216 221 227 238 252 263 271 277 279 279 278 277 276 275 274 273 271 269 266 265 266 266 267 266 265 265 265 265 264 263 263 267 270 267 260 255 252 250 249 251 255 258 258 257 256 255 255 255 253 249 241 233 225 215 204 198 197 198 196 188 180 176 176 172 168 164 159 156 154 153 148 144 143 143 142 141 140 137 133 131 128 126 125 126 126 124 121 120 119 116 112 108 105 103 101 99 96 93 91 90 89 88 88 88 88 89 90 92 94 97 100 102 104 106 110 114 116 118 121 123 122 119 115 111 107 105 103 103 104 106 106 106 107 108 109 111 115 122 127 129 131 131 131 130 128 126 122 119 119 118 117 116 116 114 114 114 114 115 114 114 113 112 112 113 113 113 112 112 112 113
107 112 116 121 125 128 131 135 139 144 150 155 160 167 173 172 168 162 156 156 161 168 174 179 182 184 186 189 197 208 224 235 244 251 258 264 270 277 286 296 307 317 326 332 342 356 367 376 379 374 369 364 359 350 342 334 327 324 321 320 319 315 312 304 294 283 274 271 270 268 263 257 250 244 237 230 223 218 213 207 201 198 198 201 205 210 215 221 227 231 234 236 235 235 237 241 245 246 246 250 255 259 263 268 272 273 269 261 252 243 233 228 223 217 208 195 182 173 168 164 158 152 150 150 150 152 155 158 159 160 161 161 161 160 163 167 174 181 188 197 207 215 220 226 234 245 257 267 272 276 279 279 278 277 275 273 272 271 269 267 266 266 267 269 269 269 269 269 269 270 271 272 274 278 277 271 266 263 261 260 260 263 267 268 266 263 263 264 262 260 258 253 246 240 231 217 211 208 206 205 199 190 182 180 178 176 172 166 160 156 155 152 147 146 146 145 143 141 139 134 133 131 128 127 127 126 124 121 119 117 114 111 109 105 102 100 99 96 95 94 92 90 88 88 88 89 89 89 91 94 98 101 102 104 105 110 114 115 117 120 121 121 118 114 109 106 105 104 103 104 104 105 105 106 106 106 109 114 120 126 128 131 132 132 131 130 129 126 123 121 119 117 117 117 116 115 116 115 116 115 114 113 113 113 114 115 116 116 115 116 117
106 110 115 119 123 126 130 136 142 148 154 158 163 171 174 173 170 171 169 169 171 174 176 180 183 188 193 200 209 218 233 243 249 257 265 272 281 289 298 310 320 328 334 341 351 362 372 379 378 370 364 359 353 345 336 328 321 318 316 314 313 311 308 303 294 285 277 273 272 271 268 262 255 249 242 237 230 223 218 214 204 197 193 193 194 196 200 207 213 219 223 226 225 226 229 232 235 235 235 239 244 248 252 256 261 264 263 256 248 239 231 226 222 216 208 198 187 177 170 165 161 155 150 149 146 146 148 151 151 152 152 152 151 152 154 159 167 176 187 199 208 214 219 225 231 239 248 259 267 272 277 279 279 277 273 272 270 268 267 264 262 263 264 267 269 269 268 270 271 272 274 274 277 282 283 279 275 272 269 266 266 269 273 276 275 272 270 270 268 265 265 262 257 252 247 239 233 228 221 216 211 203 193 187 186 182 178 173 166 160 160 158 154 151 148 146 144 141 138 135 133 132 129 127 126 125 122 119 116 116 112 110 108 105 103 102 101 99 98 95 93 90 88 88 90 91 90 90 92 97 101 102 102 103 106 111 115 116 117 119 120 119 117 112 108 105 105 105 103 102 103 104 104 104 104 105 107 112 118 123 126 129 132 133 133 132 130 129 126 123 120 118 117 117 116 115 115 114 115 115 114 115 116 117 117 117 117 116 118 121 123
107 111 114 119 123 125 128 135 141 149 157 162 168 173 175 174 175 178 178 177 177 178 178 181 188 197 206 216 224 232 241 249 257 266 274 284 294 303 313 325 333 339 347 355 363 370 376 378 374 365 357 351 345 337 328 320 314 311 309 307 305 302 298 297 290 283 278 275 273 272 270 266 259 251 245 241 237 230 225 219 210 200 193 189 187 187 189 193 198 204 209 211 213 216 220 224 227 228 228 230 234 239 242 246 251 255 255 250 243 237 230 225 220 214 209 202 191 181 174 168 163 156 150 147 143 142 143 145 145 146 146 146 144 145 148 155 166 178 189 200 209 213 218 224 230 236 244 254 261 268 272 275 275 273 270 267 266 264 261 258 257 257 259 262 264 265 266 269 271 272 273 275 280 286 287 285 281 277 274 271 273 278 284 287 286 283 280 277 274 272 272 269 266 264 263 261 256 253 245 234 225 218 207 197 194 188 183 179 175 171 170 167 159 153 149 145 143 140 138 134 132 131 130 128 125 121 119 116 115 115 113 110 108 106 105 105 104 102 97 95 93 89 88 89 91 92 91 91 94 99 103 104 104 105 109 113 116 116 117 118 118 117 114 111 107 106 105 105 103 101 101 103 104 104 104 104 106 111 115 119 123 127 130 132 133 132 131 129 126 124 122 121 120 119 117 115 114 114 114 114 114 116 117 119 119 119 119 118 120 125 128
110 112 115 118 121 124 128 133 140 149 158 166 172 174 177 178 180 183 183 181 182 182 182 188 198 211 221 230 238 243 249 254 264 276 284 294 306 316 326 338 344 350 359 368 373 376 377 375 369 359 350 343 336 328 321 313 308 305 302 300 297 293 289 288 284 280 277 275 273 271 269 266 262 255 249 247 244 237 231 224 214 202 194 187 183 181 181 183 187 190 194 197 201 207 213 217 219 221 222 225 228 231 234 238 242 246 247 244 241 237 231 226 220 215 211 206 195 185 178 172 165 158 152 148 144 142 142 142 142 142 141 141 139 138 143 152 164 176 188 200 209 214 218 223 229 234 241 247 255 262 267 270 271 269 264 259 256 253 250 248 248 250 252 254 256 258 262 265 268 270 272 276 282 288 290 289 286 282 280 279 282 289 297 301 301 297 295 288 284 280 277 274 272 272 273 270 268 267 262 252 241 233 222 211 203 197 191 185 181 180 178 174 165 156 151 146 142 139 137 135 133 132 131 128 125 121 118 116 115 115 113 110 109 108 107 107 105 102 97 94 91 88 88 89 91 92 90 90 94 99 103 106 106 108 111 115 117 117 116 115 115 114 112 110 109 107 106 105 103 101 100 101 102 104 104 103 104 108 112 116 120 124 126 128 129 130 129 127 125 124 125 125 124 122 119 116 115 115 115 115 115 118 121 121 123 124 124 124 126 129 131
110 113 115 117 119 124 128 133 140 148 158 169 175 179 181 182 185 187 186 186 186 187 190 199 209 219 228 236 244 251 256 262 272 283 290 300 314 326 337 346 352 359 368 374 378 378 375 370 362 353 344 335 327 321 314 307 302 298 295 294 291 287 284 281 277 276 274 273 272 270 268 268 267 263 256 254 249 244 238 231 221 208 199 190 184 179 175 176 178 180 183 188 194 200 206 210 212 213 216 219 221 224 227 230 235 239 240 240 239 236 232 227 221 217 214 210 199 189 181 175 168 162 157 153 149 146 143 140 139 137 137 136 135 135 139 147 159 171 182 195 206 213 218 221 226 230 235 239 245 254 262 266 268 264 258 252 246 242 241 239 238 239 240 242 246 251 253 255 261 265 268 273 279 285 288 286 284 283 283 285 290 298 305 310 311 311 308 302 294 287 282 279 277 276 275 272 269 269 267 260 252 243 232 222 213 207 200 193 188 186 184 179 171 163 155 149 143 139 136 137 135 133 132 130 128 125 122 118 115 115 114 112 110 109 108 106 103 99 97 94 89 88 88 89 90 89 88 90 93 98 102 104 106 107 110 115 117 116 114 113 112 112 111 110 109 108 106 105 103 101 99 99 100 102 102 102 102 105 109 112 115 119 121 122 125 126 127 125 124 125 126 128 129 128 127 126 124 123 124 125 126 128 130 131 134 136 135 135 134 133 133
110 113 115 118 122 126 131 137 142 149 159 170 177 180 183 186 187 187 187 187 188 192 198 207 215 224 233 241 250 259 267 272 280 290 298 308 320 333 343 352 359 367 374 378 379 377 371 363 355 347 338 328 321 316 310 302 295 291 290 288 285 282 279 276 272 272 273 273 271 270 269 270 271 271 270 268 263 255 248 239 230 218 207 197 190 183 177 175 175 175 177 180 186 193 198 202 203 203 206 210 213 217 220 224 229 233 236 236 236 234 231 226 222 219 216 211 203 194 185 177 171 165 159 156 153 148 143 139 135 132 132 134 135 134 138 145 157 168 177 187 199 209 215 218 222 225 229 233 237 244 254 261 261 256 249 241 236 232 230 229 226 225 226 230 235 242 245 247 251 257 261 268 273 277 279 278 277 277 280 283 289 297 303 310 315 317 317 312 303 294 290 286 283 280 277 273 270 268 266 261 253 245 236 228 222 217 210 202 196 192 188 181 175 168 160 152 143 139 138 138 135 132 132 131 129 127 124 120 117 115 115 114 112 110 108 104 101 97 95 92 88 88 88 88 88 88 88 89 93 96 99 101 103 103 104 110 114 115 113 112 110 110 110 110 109 106 104 103 102 100 97 96 97 99 99 100 101 103 106 108 111 114 117 119 121 124 126 126 126 128 130 132 133 134 135 135 134 134 136 135 134 135 138 139 142 145 145 142 139 137 137
111 116 118 121 124 129 135 141 145 152 161 171 178 179 182 185 187 188 188 189 191 195 203 213 220 228 238 247 256 266 275 281 289 298 306 313 324 336 347 357 367 374 378 380 380 375 366 357 348 340 331 322 316 312 306 297 290 286 284 282 279 276 273 269 265 267 269 270 269 269 269 269 271 276 280 277 269 260 253 244 235 229 217 206 196 189 183 177 174 173 172 173 180 185 189 192 191 190 193 198 204 208 212 215 219 226 230 232 233 231 228 225 223 220 217 212 206 200 191 180 171 164 158 154 152 146 141 137 132 129 129 132 134 137 141 147 155 165 173 181 193 203 210 214 217 222 226 230 233 238 245 250 251 248 241 234 229 224 221 218 215 214 216 221 227 233 237 238 243 249 253 260 264 266 269 269 269 269 273 277 283 290 296 304 312 317 320 317 311 303 298 294 288 284 278 274 270 266 263 259 252 244 237 232 229 225 218 209 202 198 192 183 175 169 162 153 144 139 139 138 134 130 130 130 128 125 122 120 117 116 115 113 111 109 105 103 100 95 93 88 88 88 88 88 88 88 88 88 91 93 96 98 97 96 97 101 107 109 109 108 106 107 109 109 108 104 102 103 102 99 95 94 96 97 97 98 99 100 103 105 108 111 115 118 120 123 127 128 128 130 133 135 135 136 138 139 139 139 139 138 137 139 141 142 145 147 147 144 142 142 144
112 117 119 122 126 132 138 143 146 154 165 175 179 179 181 184 187 189 190 191 194 199 209 218 224 232 242 252 260 269 278 285 293 302 308 315 324 335 349 363 375 379 379 380 378 373 362 352 342 333 324 316 312 308 301 293 288 284 281 278 274 269 265 260 257 259 261 263 266 267 268 267 270 278 284 282 275 267 258 247 239 231 221 210 199 190 183 177 173 171 169 168 171 174 175 178 178 178 181 188 192 197 200 203 208 216 224 227 229 229 228 227 224 221 218 214 209 205 196 181 170 162 156 152 149 145 141 136 132 128 126 128 133 138 143 148 153 160 167 175 186 197 205 210 213 219 224 228 231 234 239 242 243 240 236 230 225 221 215 210 207 208 211 215 220 225 230 234 236 240 244 250 254 258 260 261 262 262 264 270 277 283 288 296 306 313 320 322 318 312 304 297 291 285 278 273 270 266 263 260 254 244 236 234 233 229 222 214 207 202 195 185 177 171 164 154 144 139 138 137 133 130 129 128 125 122 120 118 116 114 114 113 110 108 104 102 99 94 90 88 88 88 88 89 88 88 88 88 90 92 93 93 91 89 90 92 96 98 101 102 101 102 105 106 106 102 101 103 102 97 94 94 95 97 98 98 98 99 101 104 107 110 114 117 120 124 128 130 130 132 135 137 137 137 139 139 139 139 138 137 138 139 141 142 143 145 145 143 142 143 146
112 117 119 122 128 133 138 143 148 156 170 179 181 181 183 186 190 193 194 195 198 204 213 223 229 236 246 254 260 268 276 285 294 303 311 319 328 338 352 371 378 380 380 378 376 369 358 347 337 327 318 312 307 302 296 290 287 282 278 275 269 263 257 252 250 251 253 256 260 265 267 269 270 276 283 283 278 271 262 251 240 233 225 214 204 195 187 181 176 172 168 166 163 163 163 164 165 166 170 177 182 184 187 190 196 205 215 220 223 227 228 227 224 220 218 214 211 208 197 182 171 164 158 152 148 144 142 138 133 127 124 125 130 137 143 148 152 156 162 169 178 189 199 203 207 215 220 223 226 229 233 237 237 233 230 226 222 216 209 203 200 201 206 209 211 216 223 227 230 233 236 240 245 248 250 253 255 256 259 264 270 277 283 289 298 308 317 321 320 316 307 298 291 284 277 271 268 267 265 262 256 245 237 234 233 229 224 217 210 204 196 186 178 172 164 154 145 141 138 137 134 130 128 126 123 121 119 117 114 113 114 112 109 107 103 100 97 93 89 88 88 88 88 89 89 88 88 88 90 91 90 88 87 87 87 87 89 90 92 94 95 96 98 99 99 99 100 102 100 96 93 93 93 96 98 99 98 99 101 103 107 111 114 118 123 128 131 133 133 134 136 137 137 137 138 137 137 137 137 137 137 139 140 140 141 142 143 142 142 142 144
112 115 118 123 129 134 139 146 153 162 174 180 182 181 184 190 194 197 199 200 204 210 219 229 235 241 249 256 262 267 275 287 298 306 316 326 336 347 360 375 380 381 380 376 370 362 352 342 334 323 314 307 301 296 292 288 284 277 273 267 260 254 248 245 243 245 248 251 255 262 267 269 271 276 281 281 278 273 264 254 243 236 230 222 213 206 196 186 180 176 170 164 161 160 159 158 157 157 158 163 170 174 176 179 184 192 201 207 213 220 225 224 221 218 216 213 211 206 196 184 175 168 162 155 149 145 143 139 135 130 124 124 128 135 141 146 148 152 157 162 171 179 188 193 199 209 215 217 220 224 228 231 230 226 224 221 216 208 201 195 192 191 196 201 206 210 215 221 224 226 228 232 235 238 240 243 246 250 254 259 265 272 278 282 289 301 311 314 314 311 303 295 288 281 275 269 266 266 266 263 257 247 238 233 231 228 223 218 212 205 197 187 178 171 164 155 147 142 139 136 133 129 127 125 122 119 118 117 114 113 113 110 107 105 102 99 95 92 88 88 88 88 88 88 88 88 88 88 88 89 88 87 87 87 87 87 88 86 87 88 88 89 90 90 91 93 96 97 95 93 92 91 91 93 95 96 97 98 101 104 108 112 116 122 127 131 134 135 135 136 137 137 137 139 140 139 138 137 137 137 137 138 139 140 141 142 144 144 144 144 144
112 115 119 126 131 135 141 151 158 165 174 181 182 184 189 196 203 204 204 206 210 218 228 237 243 247 253 260 266 269 277 290 302 310 320 334 346 356 369 378 380 380 378 371 362 354 346 338 330 319 310 303 296 290 287 285 279 270 263 256 249 245 241 239 238 241 244 248 252 258 262 265 269 275 279 278 276 272 266 256 247 241 236 228 221 212 202 191 185 180 172 165 164 163 162 159 156 154 153 155 160 164 167 171 175 181 188 193 199 206 214 216 216 216 214 213 210 204 195 186 177 171 165 159 152 146 143 140 138 133 126 124 127 132 137 141 144 147 151 155 162 170 177 182 190 202 211 215 218 221 224 226 224 221 218 214 208 200 192 187 183 183 188 194 201 205 210 216 220 223 224 225 228 231 233 235 238 242 247 254 261 269 275 278 284 292 301 304 304 303 297 291 285 279 273 266 264 265 265 262 256 247 238 231 226 223 220 216 212 204 195 187 179 171 164 155 147 142 138 136 132 128 127 124 121 118 117 116 113 112 111 109 106 105 102 99 95 92 89 88 88 88 88 88 88 89 90 88 87 88 87 87 87 87 87 88 88 86 85 85 84 84 84 83 84 86 88 90 90 89 89 88 87 88 90 92 93 96 100 104 108 112 120 126 131 134 136 138 138 138 140 141 141 142 144 144 143 142 138 137 137 138 140 141 142 143 144 146 146 145 145
114 116 120 127 135 137 145 153 158 163 172 180 184 187 193 203 209 210 210 211 215 224 235 244 248 254 260 266 270 274 281 292 304 313 323 338 352 364 375 381 381 379 373 363 354 348 341 333 325 315 305 298 291 284 281 280 274 260 251 244 239 236 234 232 233 238 243 245 249 253 256 258 264 273 276 276 276 276 271 262 253 247 242 236 225 217 210 200 193 186 176 169 167 167 166 161 157 154 153 152 153 153 156 162 167 170 174 179 185 191 198 205 210 212 212 212 211 204 197 187 178 171 166 160 155 148 144 140 138 134 127 124 125 127 132 136 139 142 146 149 153 161 167 173 183 198 208 215 217 220 222 222 220 218 214 208 201 192 184 179 175 175 180 187 196 202 208 213 219 221 222 222 225 229 231 230 231 234 240 246 254 262 270 276 281 286 291 295 296 296 293 287 282 277 272 264 262 262 263 259 252 243 234 226 220 216 214 212 208 201 193 185 177 169 162 153 147 141 137 134 130 127 126 123 120 117 116 115 112 111 108 106 104 103 102 99 97 94 90 88 88 88 88 88 90 91 90 89 87 87 87 87 87 87 88 88 88 87 86 84 83 82 81 81 81 81 82 83 84 85 85 85 84 83 85 86 87 91 96 101 105 112 123 130 133 135 138 142 143 142 143 145 144 145 147 148 147 145 141 138 138 140 141 142 143 144 145 147 146 145 146
117 118 120 127 136 141 146 152 156 161 170 178 183 186 192 200 208 212 215 217 222 230 242 249 256 264 267 270 275 282 287 298 308 316 328 345 360 371 378 379 377 373 366 357 348 342 336 328 319 310 300 292 285 280 278 275 266 251 242 236 231 227 225 224 228 235 240 243 246 247 249 251 258 268 275 278 281 282 280 272 265 258 249 241 233 223 216 208 201 193 183 174 169 168 167 164 160 156 154 153 150 147 148 154 160 162 163 167 173 178 186 194 202 206 208 209 208 204 200 192 181 174 168 162 157 151 145 140 136 132 126 123 124 124 127 131 135 138 141 145 148 153 158 165 180 195 206 213 215 217 219 218 217 214 211 204 195 187 178 170 167 167 172 180 190 199 204 209 212 215 217 217 217 220 223 223 222 227 233 240 246 254 262 270 276 281 285 288 289 290 288 284 279 273 267 262 258 257 257 253 245 235 226 219 212 209 207 206 202 197 190 182 175 166 158 151 145 140 135 132 128 126 125 121 119 116 116 115 114 113 109 104 102 102 102 99 97 95 92 88 88 88 88 90 91 91 91 89 87 87 88 88 87 87 87 88 87 87 86 84 81 81 81 81 81 81 81 81 81 82 83 83 82 80 80 81 81 85 91 96 101 111 123 129 132 135 140 146 149 149 147 146 145 147 149 148 148 146 143 140 140 142 144 144 145 147 149 149 146 145 147
122 121 122 127 136 142 146 149 153 161 170 177 181 184 190 197 206 214 221 226 232 239 247 256 264 269 271 274 281 290 296 306 315 324 339 354 365 372 373 371 368 364 358 349 341 335 329 323 313 302 293 286 281 278 275 269 259 245 236 231 226 222 219 219 223 230 235 238 240 241 241 244 252 263 273 280 285 287 286 281 275 267 257 247 239 229 224 219 210 200 190 183 175 171 170 168 164 158 155 153 150 146 146 149 153 155 157 159 162 168 176 183 191 195 198 201 202 202 201 196 187 179 171 164 158 152 145 140 135 130 125 123 124 124 125 128 131 133 135 139 145 150 154 161 176 192 204 211 213 214 215 216 214 211 207 199 191 182 172 163 159 159 163 171 182 190 197 199 199 201 204 205 203 205 209 208 211 219 228 234 241 248 254 259 267 275 280 281 283 284 283 280 276 268 260 256 252 249 246 241 234 224 215 209 203 200 198 198 196 194 188 179 172 163 155 149 144 140 135 131 128 125 123 119 116 114 114 115 115 113 110 103 101 101 100 98 95 94 93 91 88 88 88 90 92 93 92 91 89 88 90 88 87 87 88 87 87 87 86 83 81 81 81 81 81 81 81 81 81 81 82 82 80 79 78 78 78 81 86 92 99 109 119 127 132 136 142 149 154 154 150 147 145 147 149 148 147 145 143 143 144 146 148 148 148 150 152 151 147 145 147
126 125 125 130 138 144 146 149 154 162 171 177 180 184 189 198 208 219 228 236 241 248 255 260 269 273 275 280 290 302 309 316 323 334 348 358 364 365 363 358 356 352 346 340 333 327 322 315 304 291 285 280 277 275 271 264 254 241 232 228 224 219 215 215 218 222 227 231 234 236 237 240 247 258 271 280 288 292 292 288 282 274 263 253 243 235 233 230 219 208 197 190 183 176 171 168 164 160 155 152 148 147 146 146 147 148 152 154 156 160 166 172 179 183 186 190 193 195 196 194 189 183 173 164 157 150 145 140 134 129 125 123 123 124 125 127 129 129 131 135 141 146 151 158 173 190 201 208 210 212 212 212 211 207 202 195 186 177 168 160 154 151 154 162 171 178 184 186 186 185 188 189 188 191 194 196 200 209 219 227 236 242 247 251 257 267 273 276 279 278 276 274 270 261 253 249 244 238 232 228 224 214 206 199 194 191 190 191 191 191 187 179 171 162 153 148 143 138 134 131 128 124 122 118 115 112 112 112 111 110 109 105 103 102 100 97 95 93 92 91 89 88 90 91 92 94 95 94 92 91 89 88 87 88 88 88 88 88 86 84 83 83 83 83 83 81 81 81 81 81 82 81 81 79 78 78 78 81 85 91 99 107 115 124 131 138 144 151 156 156 152 147 146 147 148 148 146 144 144 146 148 150 151 151 151 153 154 153 149 146 145
128 129 129 132 138 143 147 150 156 164 172 177 180 184 192 200 209 221 230 238 245 253 260 266 273 279 283 289 300 311 320 326 334 342 352 358 358 354 350 344 342 340 335 331 326 320 314 307 294 282 276 273 272 270 266 259 249 238 229 225 222 218 213 210 211 213 218 224 228 232 235 238 244 254 268 278 286 292 292 289 285 279 269 258 248 241 239 236 227 215 204 197 190 182 175 170 166 162 158 154 150 149 149 147 146 146 148 150 151 153 157 163 168 171 172 175 180 184 187 187 186 182 173 162 154 148 143 140 133 128 125 123 123 124 125 126 126 125 128 132 137 143 148 156 170 184 195 202 205 207 206 206 206 202 196 190 182 173 166 159 152 147 149 155 162 168 172 173 174 174 174 175 176 179 182 186 191 203 214 223 232 236 241 246 252 260 267 270 271 270 268 265 261 254 249 245 238 230 224 219 215 208 199 193 188 184 184 185 186 186 184 179 173 162 152 147 142 136 133 130 127 125 123 121 118 115 112 109 109 109 109 108 108 108 105 101 97 95 92 90 89 89 90 91 92 93 94 95 94 91 89 88 87 88 89 90 89 88 86 85 85 85 84 84 83 82 81 81 81 81 81 82 82 81 79 78 78 82 86 92 99 105 111 119 127 136 144 151 155 156 153 149 147 148 148 147 145 144 145 148 150 151 152 153 154 156 156 155 152 148 146
131 132 132 134 139 144 148 152 157 165 174 178 180 184 192 199 207 220 233 240 246 254 261 269 278 288 297 304 312 320 328 334 339 345 350 352 348 342 337 333 331 329 324 321 317 313 307 297 283 274 269 266 264 262 257 251 243 234 227 223 221 218 212 206 202 204 210 217 223 228 233 236 242 251 265 275 281 286 288 287 284 280 273 263 253 245 242 240 234 225 214 207 199 190 183 175 170 168 166 161 156 154 152 149 146 145 146 147 147 148 150 153 158 159 159 161 164 169 174 178 178 176 168 159 151 144 141 139 134 128 127 124 122 121 122 123 122 122 125 131 136 142 147 154 167 178 187 193 197 198 198 198 198 195 189 184 178 173 167 160 151 146 147 150 155 160 162 162 163 163 163 162 161 164 169 174 186 200 212 221 226 232 237 241 246 254 260 263 262 261 259 257 253 249 245 242 233 226 219 211 205 198 191 187 183 179 178 179 180 181 181 179 172 162 152 146 141 135 130 127 126 126 125 125 124 121 115 109 109 109 110 111 113 113 110 105 101 98 95 91 90 89 90 90 90 90 91 92 94 93 91 89 89 89 89 90 90 88 89 89 87 86 85 84 83 82 81 81 81 82 82 82 83 82 79 78 79 83 88 93 99 104 109 116 126 136 145 151 154 156 153 150 149 149 148 146 145 145 146 147 149 150 151 153 156 157 157 157 155 153 150
133 135 137 139 142 146 150 153 158 167 176 181 182 184 191 198 207 222 233 239 246 253 261 272 285 297 307 315 322 328 336 342 345 346 346 342 338 334 329 324 323 319 313 309 306 302 295 283 273 267 260 257 255 252 248 243 236 228 223 222 221 217 210 201 196 197 202 210 218 225 230 234 239 248 261 273 278 281 282 282 280 278 274 267 260 251 246 242 237 229 221 215 206 199 191 180 175 173 173 168 161 160 157 150 146 145 144 144 143 143 144 146 147 149 149 150 150 154 160 166 168 166 161 155 148 141 137 137 134 130 128 125 121 118 118 118 117 118 122 128 135 141 146 153 163 172 178 184 187 189 189 190 190 187 183 179 177 174 168 161 153 146 144 146 149 152 154 155 155 154 154 153 152 154 159 169 181 197 209 216 222 228 233 237 242 247 252 255 256 254 251 248 245 242 239 235 227 220 213 204 196 188 183 181 178 174 172 173 175 177 178 177 171 162 152 145 139 133 128 126 126 127 127 127 128 126 120 113 109 110 111 112 115 115 112 106 102 100 96 93 91 90 90 91 90 90 90 91 93 95 94 93 92 91 89 89 89 90 92 92 90 87 85 84 83 83 85 85 84 84 84 83 82 81 78 78 78 84 90 95 100 105 111 119 128 137 144 149 153 155 153 151 150 151 150 149 148 147 147 147 148 148 149 152 155 156 157 158 157 156 154
136 138 139 142 145 148 152 153 161 173 183 186 186 186 190 197 209 221 231 238 247 256 265 277 288 302 312 320 329 335 342 346 348 346 340 336 330 324 318 313 310 305 299 295 292 286 279 271 265 258 252 248 247 243 239 236 230 225 222 222 221 216 207 197 192 193 198 206 214 222 227 232 237 245 257 270 276 277 277 277 276 275 272 269 263 256 248 242 237 231 225 217 210 205 198 186 178 176 175 169 166 163 159 152 148 145 144 143 140 139 140 141 141 141 141 141 140 142 149 155 157 157 154 150 145 138 134 133 131 130 129 126 121 116 113 112 111 112 116 122 130 137 142 148 157 164 170 175 177 180 182 184 185 181 178 177 178 175 170 163 155 148 144 143 144 145 147 149 149 148 147 147 146 147 153 163 175 190 203 212 219 226 231 235 239 243 246 248 247 244 239 234 233 233 231 227 220 213 205 195 186 179 174 173 172 168 166 166 168 170 173 172 168 160 152 145 138 133 130 128 127 128 129 128 129 129 125 119 115 113 112 113 115 116 113 107 103 99 96 95 92 92 92 92 91 91 91 91 93 96 97 96 95 93 90 90 91 92 93 91 89 87 86 85 85 85 87 88 88 87 87 87 84 80 78 78 80 86 93 98 103 109 115 122 130 137 143 146 150 152 153 151 152 152 153 152 151 149 149 148 147 146 147 149 152 153 154 156 156 157 156
137 138 141 144 146 148 150 154 163 179 189 191 190 189 189 197 207 219 230 240 249 260 270 279 288 301 313 323 331 339 344 347 345 340 335 328 319 311 304 301 295 289 285 280 275 270 266 261 257 249 244 241 239 237 234 230 226 223 220 219 216 211 202 194 190 190 195 202 209 217 225 230 235 244 253 263 269 269 268 268 271 271 270 268 263 257 248 242 237 233 228 222 214 209 203 194 183 177 174 171 166 163 159 153 149 147 144 142 139 138 138 139 138 137 137 136 135 135 140 145 148 148 147 145 142 136 132 129 128 128 129 127 121 114 111 111 111 111 112 117 123 129 135 143 152 158 164 171 173 176 179 182 181 178 177 177 178 176 171 164 158 152 147 144 142 140 140 142 144 143 143 143 142 143 149 158 171 184 199 209 218 226 231 235 238 240 241 240 239 236 229 224 224 225 224 220 214 207 199 189 180 173 167 166 166 163 161 160 160 163 167 167 164 158 152 146 140 136 134 133 131 130 130 129 130 131 129 124 120 118 116 114 115 116 114 108 104 100 98 96 95 94 94 93 92 92 93 93 94 96 97 97 96 95 93 92 93 94 92 90 89 87 86 87 87 87 89 90 90 91 91 88 83 80 78 79 83 89 95 101 106 110 116 123 129 136 140 142 146 150 151 152 154 154 154 153 151 149 148 146 145 144 145 148 150 151 151 153 154 157 156
136 138 142 145 147 148 150 154 165 180 191 194 193 192 192 197 206 218 231 242 252 263 275 282 291 304 317 325 334 340 343 342 338 332 325 316 306 297 292 287 278 275 272 266 260 257 255 252 247 240 237 234 232 231 228 224 221 217 214 211 208 203 196 191 188 186 189 196 204 215 223 228 233 241 248 255 258 258 257 258 262 264 264 263 260 255 247 241 237 234 230 227 221 214 206 197 186 178 173 170 165 160 156 152 149 147 145 143 140 138 138 138 136 135 135 134 132 131 134 139 140 140 140 138 136 131 128 127 127 127 128 127 120 112 111 111 111 111 111 112 115 120 126 135 145 153 160 168 173 177 180 182 180 178 177 177 178 175 170 164 159 155 150 145 140 135 134 136 137 137 137 139 141 143 148 157 167 180 196 209 219 226 230 234 237 237 235 234 235 231 224 220 219 217 217 216 210 203 194 185 177 169 163 160 159 158 157 155 154 157 161 163 161 158 153 148 143 141 139 138 136 133 132 132 133 133 131 126 123 123 120 117 116 116 115 111 106 102 99 98 96 95 94 94 94 95 96 98 97 97 97 97 97 96 95 95 95 94 92 91 89 87 87 88 89 90 91 91 91 91 91 86 81 79 77 79 83 89 94 100 104 108 114 122 129 135 138 140 143 147 151 153 155 155 154 151 148 146 144 141 140 141 143 147 149 148 148 149 151 155 155
135 138 142 145 147 149 151 155 164 181 195 200 199 197 198 202 208 220 233 243 255 268 277 285 295 309 321 330 336 338 338 336 330 323 316 307 296 287 281 273 265 262 260 254 250 248 246 243 238 233 229 227 224 222 220 217 214 209 205 202 199 195 191 188 186 184 186 191 199 211 220 224 229 235 241 246 248 248 247 248 251 255 257 256 255 251 245 240 237 234 231 230 227 219 210 202 191 182 175 171 166 160 156 155 153 150 147 146 144 140 140 140 138 137 137 135 133 131 131 133 135 136 136 134 131 127 124 123 125 125 125 123 117 111 111 111 111 111 111 111 111 112 117 126 137 147 156 166 173 178 181 182 180 179 177 177 176 173 168 163 159 157 152 145 139 133 129 128 128 130 131 136 141 146 151 159 169 180 194 210 220 225 229 233 235 233 231 230 230 226 220 217 213 211 211 211 207 200 193 186 177 168 161 158 157 157 154 152 151 153 155 157 157 156 152 148 146 145 143 141 139 137 136 136 136 135 131 127 126 126 123 121 120 119 118 114 110 104 98 97 97 96 95 94 95 96 99 100 99 99 97 97 98 99 99 98 97 96 95 94 91 88 88 90 91 91 92 91 91 91 88 80 77 77 77 77 80 86 92 98 103 106 114 123 129 135 137 139 141 145 150 154 156 155 152 148 144 141 139 137 136 138 142 145 146 146 146 147 148 151 152
136 139 142 144 147 151 153 156 164 181 198 205 206 205 205 209 214 223 233 244 258 271 279 287 300 313 326 334 339 339 334 329 321 315 309 300 288 279 273 266 258 253 249 245 243 240 238 236 234 228 224 220 217 214 212 210 207 203 199 195 192 189 187 185 184 182 184 188 194 204 212 217 221 227 233 236 237 238 239 240 243 245 248 248 248 245 242 239 236 233 231 230 227 222 215 208 200 190 180 175 172 166 164 161 158 156 153 152 149 146 144 144 141 140 140 138 136 133 131 131 130 132 133 132 128 125 120 120 121 121 120 117 113 111 111 111 111 111 111 111 111 111 111 119 130 140 150 162 170 176 180 181 180 178 176 175 175 172 167 164 161 159 153 145 138 131 124 122 122 123 126 135 145 151 155 160 169 181 195 208 217 223 227 231 233 232 229 226 224 217 212 209 205 204 205 207 203 197 191 186 178 169 163 160 159 157 154 151 149 149 150 151 152 152 151 150 149 148 147 144 143 142 141 139 137 135 133 130 129 129 127 124 123 122 120 116 112 105 99 98 98 98 96 94 95 97 100 101 101 101 100 99 100 101 102 103 102 100 99 97 93 89 88 91 91 89 89 89 89 89 85 78 77 77 77 77 79 86 94 99 103 107 114 121 129 134 137 139 141 144 148 153 155 153 149 144 139 136 135 133 133 136 140 144 145 145 145 145 146 148 147
135 138 139 142 147 153 155 157 166 182 199 209 211 209 210 213 219 227 236 246 260 272 280 290 304 317 327 335 339 337 330 324 316 306 297 287 278 272 267 260 253 245 241 238 236 233 232 231 228 224 218 214 212 208 205 202 199 197 194 190 186 184 183 182 182 181 182 185 190 197 203 208 212 217 222 226 227 229 231 233 235 237 239 241 242 240 238 236 233 231 230 229 227 222 217 212 205 196 186 179 176 171 169 166 163 160 156 153 150 147 144 142 140 139 139 137 136 134 132 130 130 131 131 130 127 123 119 117 117 116 114 111 111 111 111 111 111 111 111 111 111 111 111 114 123 132 144 156 166 173 178 179 178 176 175 175 174 172 168 165 163 160 154 144 135 127 121 119 119 120 125 136 148 155 159 163 171 181 194 206 215 220 225 229 230 230 227 223 215 209 203 199 197 198 199 200 197 192 188 186 179 170 164 161 161 158 154 150 148 148 147 147 147 148 150 153 155 154 152 150 148 147 145 142 139 137 136 133 131 131 129 126 125 122 119 116 112 106 102 101 101 99 97 96 96 99 102 102 103 104 103 103 103 103 105 107 108 105 102 97 92 87 85 86 87 86 85 85 86 88 86 80 77 77 77 78 80 86 93 98 102 107 111 119 127 133 136 138 140 142 146 151 152 151 147 141 136 133 132 131 131 133 138 143 144 144 144 144 144 145 143
133 135 138 143 147 152 154 158 167 181 200 211 215 215 215 218 225 232 240 250 262 273 280 290 306 319 328 334 334 332 325 319 310 296 286 278 270 264 260 256 248 239 235 233 231 229 228 225 222 217 211 208 204 200 198 195 192 190 187 183 180 180 181 180 179 179 179 181 184 189 194 198 202 206 210 215 219 220 222 225 229 231 233 236 236 235 234 231 229 229 229 228 226 222 219 214 207 202 193 185 180 177 174 170 168 165 159 154 151 147 143 140 137 136 136 135 134 132 132 131 130 130 129 128 125 122 118 114 113 113 112 111 111 111 111 111 111 111 111 111 111 111 111 111 117 124 135 149 162 169 174 176 176 175 174 174 175 173 170 166 164 161 153 142 133 124 119 119 119 121 128 140 150 155 159 166 173 182 193 206 215 220 225 228 228 226 223 217 209 203 196 190 189 189 191 190 189 188 187 184 177 169 163 160 161 158 153 147 145 145 146 146 145 145 149 156 160 161 160 157 154 151 148 144 142 141 139 135 133 132 131 127 124 121 119 116 112 107 106 105 105 102 99 99 99 100 103 105 106 106 105 105 104 106 108 110 111 107 100 95 91 86 81 79 81 82 81 82 84 84 83 80 77 77 78 80 81 87 94 99 104 108 111 119 128 133 135 137 139 141 144 148 150 148 144 138 133 130 129 129 128 130 135 140 142 143 143 143 142 143 141
133 134 139 144 147 148 151 157 165 178 197 213 220 222 222 225 230 237 246 257 267 275 283 292 306 321 331 335 333 329 322 315 304 291 280 273 267 260 256 252 244 236 232 230 229 227 224 220 215 211 206 201 196 193 191 188 187 185 183 180 180 180 180 179 178 176 175 177 178 181 184 188 192 196 200 204 208 210 211 215 221 225 227 228 229 228 227 225 224 225 226 226 224 222 219 215 210 206 200 192 186 183 179 174 171 168 164 160 154 149 143 140 138 137 136 135 134 132 133 133 133 132 131 130 126 122 116 112 111 111 111 111 111 113 113 112 111 111 111 111 111 111 111 111 113 118 128 143 157 165 171 174 174 174 174 174 174 174 171 166 164 161 152 141 132 124 119 119 120 123 130 141 149 154 160 168 178 187 196 206 213 218 223 225 225 223 218 211 203 197 190 186 184 183 182 181 182 181 180 178 172 166 161 159 159 155 149 142 140 143 145 145 144 144 148 156 162 164 164 162 158 154 150 146 145 142 140 137 134 132 131 128 125 122 119 117 114 111 108 108 107 106 103 101 101 103 106 109 109 107 107 107 107 107 109 111 111 107 101 94 89 84 77 75 76 78 78 79 80 80 79 78 77 78 80 81 84 90 100 106 111 114 116 122 129 132 135 137 139 141 143 148 150 148 143 137 131 128 128 128 128 129 133 136 140 143 144 144 142 140 138
133 134 138 142 144 146 150 157 165 177 195 214 225 229 229 231 237 243 251 262 272 280 288 295 307 322 334 338 338 333 325 316 304 290 278 270 264 257 252 249 241 234 230 228 226 221 216 211 208 206 203 197 192 189 186 185 185 184 182 180 180 180 181 181 180 178 175 175 176 177 178 180 184 188 191 193 196 198 200 203 209 215 218 218 218 218 218 217 216 217 220 222 221 219 217 214 211 209 207 202 196 192 187 180 174 170 167 163 157 151 146 143 141 138 137 137 137 135 135 135 135 135 134 131 128 123 117 111 111 111 112 114 117 119 120 118 115 111 111 111 111 111 111 111 112 114 123 136 151 163 169 172 174 175 174 174 173 172 170 166 164 160 152 142 133 123 119 119 120 124 132 140 146 152 159 170 181 190 197 204 210 215 219 222 221 218 214 206 198 190 184 180 177 176 175 174 174 174 173 170 164 161 160 158 157 154 147 141 139 141 143 144 143 143 146 153 159 162 163 162 160 156 153 150 148 144 142 139 136 134 132 129 126 122 121 119 116 113 110 109 109 108 107 104 103 105 109 111 111 110 109 110 110 109 108 109 110 108 102 94 86 79 73 71 72 74 75 76 76 75 75 75 77 82 84 86 90 97 102 108 113 116 119 123 128 132 135 137 140 142 144 148 150 148 143 137 131 128 128 128 128 129 131 134 138 142 145 145 142 140 137
134 135 137 141 143 146 152 159 166 177 193 213 227 233 236 240 245 250 257 267 278 290 298 303 315 328 339 343 341 336 327 318 307 292 281 271 262 254 248 243 237 231 229 226 222 215 209 205 203 202 199 195 191 189 188 186 185 184 181 180 180 180 182 183 183 181 177 175 175 174 174 176 178 179 181 184 186 188 190 192 197 202 207 209 207 207 209 208 207 208 211 214 216 215 215 213 212 212 212 210 206 202 197 188 178 173 170 166 160 155 151 148 145 141 140 140 141 139 136 135 136 138 138 136 132 127 122 116 114 115 118 122 125 126 124 123 121 117 114 112 113 113 112 112 111 113 119 130 145 159 167 172 174 175 175 174 172 170 168 165 163 159 151 141 131 121 116 116 119 125 132 140 146 152 159 169 179 187 194 201 206 210 215 218 217 213 209 203 194 186 179 173 170 169 167 167 168 166 163 160 157 158 159 158 156 152 147 141 138 139 141 142 143 144 145 150 155 158 159 159 158 156 154 154 151 147 144 141 138 136 133 129 126 123 123 121 119 115 111 109 109 109 109 106 106 107 110 112 112 113 113 114 113 111 109 108 110 109 103 95 85 76 71 71 71 71 72 73 73 73 71 73 79 84 87 93 98 100 103 107 109 112 116 121 126 131 134 137 139 141 145 148 149 147 142 136 132 130 128 128 128 128 129 133 137 142 147 147 145 142 141
135 135 137 141 145 148 153 159 166 175 190 209 225 235 242 248 254 259 265 273 284 298 307 313 325 339 345 347 345 338 328 318 307 293 283 273 262 250 243 238 233 225 225 224 218 210 205 201 199 197 194 192 191 190 189 187 186 184 183 180 180 180 181 183 183 182 179 176 174 172 172 172 173 173 174 178 180 181 182 185 188 190 196 199 197 197 199 199 198 198 202 204 207 211 213 214 217 218 219 219 215 210 203 194 183 177 174 170 166 162 158 154 150 146 145 144 143 140 137 136 137 139 140 140 136 130 126 124 123 124 126 129 129 129 127 125 124 122 119 116 115 115 113 111 111 111 114 123 138 154 164 169 171 172 172 173 171 168 166 164 162 156 148 136 125 116 110 110 116 124 134 142 148 155 160 166 174 181 188 195 201 206 212 215 214 211 206 201 192 183 177 171 166 163 160 159 158 159 157 156 156 157 156 154 152 150 145 139 135 136 139 141 142 143 145 147 151 154 155 155 154 154 154 153 152 148 146 143 139 137 135 131 127 125 124 123 121 117 112 109 109 110 109 108 107 109 110 112 113 115 115 115 115 113 111 109 110 109 105 97 87 77 71 71 71 71 71 71 71 71 71 72 79 85 88 94 99 100 102 106 108 111 115 120 126 131 136 137 138 140 141 143 146 144 140 136 133 131 128 128 128 128 128 132 136 142 148 149 147 146 145
134 136 138 142 145 149 153 159 165 173 186 203 220 234 247 257 264 267 271 278 289 302 313 322 335 346 349 350 347 341 330 318 306 293 282 272 259 247 239 234 229 223 221 221 215 208 203 199 196 194 191 191 191 190 190 189 188 186 185 182 181 180 181 181 181 180 178 175 172 171 170 170 170 170 171 173 174 174 176 179 181 182 186 189 188 189 191 192 190 191 193 195 199 206 211 216 221 223 223 223 220 214 205 195 186 181 177 174 171 168 163 158 155 153 152 150 146 142 138 139 140 141 140 140 136 131 127 128 132 135 136 136 133 131 130 128 125 123 120 118 116 115 113 110 109 107 109 116 131 147 157 163 165 164 165 168 168 165 163 161 157 151 142 131 120 111 105 105 112 123 134 141 148 154 158 162 167 174 180 187 193 200 207 211 211 209 205 198 189 181 175 169 164 160 158 155 152 150 152 153 155 154 152 150 149 147 143 136 132 135 138 141 141 142 144 146 149 151 151 151 150 150 151 151 150 148 146 143 140 139 137 133 129 127 125 124 121 117 113 110 110 111 111 110 110 111 113 114 115 116 116 116 115 114 112 110 109 108 105 99 91 80 71 71 71 71 71 71 71 71 71 73 78 83 87 92 97 101 104 106 109 111 114 120 125 130 135 136 137 138 139 141 144 142 139 136 134 131 128 128 128 128 128 129 133 140 146 148 148 147 146
133 136 137 140 144 148 154 160 165 171 182 199 216 232 249 265 274 276 280 285 295 306 317 329 341 350 353 353 351 345 334 320 307 294 282 270 256 246 239 232 226 222 221 220 216 209 205 201 197 195 193 193 192 193 195 194 191 189 187 186 185 183 182 181 180 179 178 174 171 170 170 170 168 168 168 169 169 169 171 174 175 177 179 181 182 184 187 188 187 186 187 189 194 200 208 216 221 222 222 222 220 215 207 196 187 181 176 174 173 170 164 159 157 156 155 153 149 142 139 140 142 142 141 140 136 132 129 131 136 139 142 142 139 136 133 130 126 122 119 117 115 113 112 110 107 105 105 109 125 140 148 154 156 154 157 162 163 162 158 155 150 143 136 127 117 108 102 102 110 122 131 138 145 151 154 156 160 166 172 177 184 191 199 204 206 205 201 194 186 178 172 166 162 160 156 154 151 148 149 150 151 150 148 146 144 143 139 134 132 134 138 139 139 140 142 145 147 147 148 148 147 147 149 149 149 148 146 143 140 139 138 136 132 129 127 125 121 117 114 113 112 113 114 113 113 114 116 117 117 117 117 116 115 113 111 110 108 106 104 100 94 86 75 71 71 71 71 71 71 71 71 73 78 82 86 90 95 99 102 105 107 110 113 118 123 130 133 135 137 137 138 140 141 141 139 137 135 132 130 128 128 128 128 129 132 136 141 145 145 145 145
132 134 136 138 141 146 153 160 165 170 179 194 212 228 248 268 279 287 293 298 306 316 327 337 347 356 358 356 353 349 339 325 310 297 285 273 258 247 239 232 227 224 221 220 217 214 210 205 201 198 197 197 197 199 202 202 199 195 192 189 188 186 184 183 181 180 178 175 173 171 170 169 168 168 168 168 167 167 168 169 171 173 175 176 178 181 183 186 185 183 183 185 189 193 200 209 215 217 218 218 217 213 208 198 189 182 176 173 172 170 163 158 157 157 157 153 148 143 139 139 140 142 142 140 138 134 132 134 141 144 146 144 142 139 137 133 128 122 119 117 115 113 112 110 107 103 102 105 116 131 141 145 146 145 148 154 157 157 154 150 145 138 132 125 115 106 102 102 110 121 129 134 142 148 151 152 154 159 163 169 176 181 189 196 201 201 197 190 183 175 169 164 161 159 157 154 151 149 147 147 147 146 144 143 141 140 137 134 132 133 135 136 136 136 139 142 144 146 147 148 147 146 148 149 149 147 145 143 140 139 139 137 134 132 129 126 123 119 117 116 115 117 117 116 114 115 118 120 120 118 117 117 114 112 111 110 108 105 103 101 97 92 83 74 71 71 71 71 71 71 70 71 74 80 85 88 92 96 100 103 106 109 113 117 122 127 132 134 136 138 138 139 140 139 137 135 133 131 129 130 131 130 128 129 132 134 136 139 142 142 142
132 135 138 139 141 145 152 159 164 168 175 190 207 225 245 265 281 295 305 312 319 329 339 347 354 362 364 361 356 351 342 327 311 300 288 275 261 249 241 235 231 227 224 222 221 219 216 212 207 204 203 203 203 204 206 206 203 199 196 192 190 188 185 184 183 181 180 179 178 174 171 169 168 168 168 168 167 166 166 167 167 169 170 171 173 175 177 181 181 180 180 180 182 186 190 198 205 209 212 213 212 210 206 197 189 183 177 174 172 169 164 160 160 159 157 154 149 144 141 140 140 142 143 142 140 138 138 140 145 148 149 149 147 143 139 135 129 123 120 118 117 116 114 110 108 103 101 103 113 127 136 138 139 139 141 147 151 153 152 148 143 137 131 125 117 108 102 102 111 121 127 132 139 145 149 149 150 154 157 161 166 171 179 189 195 197 194 188 183 175 169 164 161 160 157 153 150 148 148 148 147 145 144 143 142 141 139 135 133 132 132 132 132 133 136 140 143 145 147 148 147 146 148 149 148 146 144 143 142 141 141 139 135 134 131 128 126 123 121 121 121 121 119 117 115 117 120 122 122 120 118 117 115 112 110 110 108 105 103 101 98 94 87 81 76 72 72 74 74 73 71 68 69 78 84 87 91 95 98 102 105 110 113 117 120 124 128 130 133 136 138 139 140 139 137 134 130 129 129 129 131 129 127 128 132 134 135 137 139 141 141
131 137 141 142 143 146 151 157 163 167 175 189 204 224 244 261 277 295 309 319 329 339 348 356 362 367 368 364 356 347 338 325 311 300 287 274 260 248 240 235 231 228 226 225 224 223 220 217 214 211 208 207 206 206 208 208 206 201 198 194 191 190 187 185 184 182 181 181 183 178 174 170 168 169 170 170 169 168 166 165 165 165 165 166 167 169 171 173 174 175 176 176 177 180 183 188 193 199 203 204 204 203 199 192 188 183 179 176 173 170 167 165 163 161 158 156 151 148 146 144 143 144 144 143 142 141 143 146 149 151 153 151 148 144 141 136 130 125 122 120 120 119 116 111 109 104 101 101 109 121 130 133 133 134 136 141 146 149 149 146 142 136 133 126 118 108 102 103 110 118 124 129 134 140 143 145 147 150 152 156 160 164 171 180 187 191 190 186 183 176 169 164 160 159 157 152 148 148 150 149 148 147 146 145 144 142 140 137 134 133 132 132 132 132 135 140 142 142 144 145 146 147 147 148 146 146 145 144 144 143 143 141 136 134 132 131 129 127 126 125 125 125 121 118 117 119 122 125 125 122 119 117 116 113 111 110 108 106 105 103 101 96 90 87 83 79 80 82 81 78 74 68 68 74 81 85 90 93 97 100 105 110 113 117 119 123 125 126 130 134 138 139 138 137 135 132 129 129 129 129 128 126 124 127 131 134 135 138 141 144 144
131 136 141 145 146 148 150 156 162 168 176 187 201 219 240 254 270 290 306 321 334 345 354 361 366 368 367 362 353 341 331 319 308 296 283 271 258 247 240 235 231 229 227 224 224 224 222 219 217 214 211 209 208 208 209 209 207 203 199 195 193 193 191 188 185 183 183 184 184 180 173 172 171 172 173 173 173 172 169 166 165 164 163 163 164 164 164 165 167 169 171 171 172 174 177 179 181 186 190 192 193 193 189 186 184 181 180 178 175 173 171 169 166 163 161 158 154 152 151 148 147 146 146 144 144 145 147 149 152 153 153 152 149 144 140 136 132 127 126 124 122 121 118 113 110 105 101 101 107 114 122 128 130 132 133 136 140 144 145 143 139 135 132 125 114 107 102 102 108 113 119 125 129 133 136 140 143 144 147 152 157 162 167 172 178 183 184 182 180 175 167 162 159 158 156 153 151 152 154 152 149 148 147 147 147 144 140 137 135 132 131 131 131 130 132 134 137 138 139 141 142 143 144 145 144 144 144 144 144 144 143 141 138 136 135 134 132 130 129 127 127 127 123 120 120 121 125 128 128 125 120 117 116 114 112 111 110 108 107 106 104 101 97 93 90 88 89 91 88 84 79 73 68 71 76 81 86 90 94 98 103 109 112 115 118 122 125 125 128 132 136 138 137 134 133 132 130 131 130 129 126 122 122 126 130 132 133 136 141 145 147
133 136 141 145 148 149 150 154 160 165 172 183 195 211 230 245 265 286 300 318 336 349 357 363 366 366 364 358 350 339 328 315 304 291 280 270 257 248 241 236 233 233 229 224 224 225 223 219 217 215 212 212 209 209 210 210 209 204 201 198 198 198 196 193 189 186 185 186 185 182 178 176 175 174 175 176 177 178 173 169 168 166 165 165 163 161 159 158 160 161 163 165 167 169 170 171 171 172 175 177 180 181 179 179 178 178 179 180 179 177 174 172 169 166 163 160 158 156 154 153 151 148 146 146 146 147 150 151 152 153 154 153 149 144 141 138 134 132 131 129 127 125 121 115 111 108 103 100 103 108 115 122 127 130 131 134 137 139 139 138 136 133 130 122 112 107 102 102 104 107 113 122 126 129 132 135 138 139 142 147 153 159 163 167 172 177 178 178 177 172 166 161 161 160 158 157 158 159 158 155 152 151 149 149 148 145 142 139 137 134 131 130 129 127 128 128 132 135 136 136 138 139 141 142 143 143 143 143 144 144 143 141 140 139 138 137 135 134 133 131 130 129 127 125 125 127 131 133 131 128 122 118 116 115 115 114 112 110 108 106 107 106 102 98 96 96 96 96 93 89 83 76 69 68 70 75 80 85 90 95 102 107 110 113 118 124 127 127 127 130 133 136 136 136 139 139 138 135 131 128 124 122 122 124 127 129 131 135 139 144 148
137 139 143 146 147 148 149 152 157 161 166 176 189 204 222 238 259 279 292 311 331 347 356 359 362 362 359 355 349 339 328 314 302 290 279 268 258 250 244 241 240 239 233 227 226 226 225 222 221 219 216 216 214 212 213 214 212 208 204 204 205 205 203 197 192 189 188 188 187 185 184 183 179 178 178 179 181 181 176 173 173 172 170 167 164 162 158 157 157 157 157 158 160 162 162 163 162 162 162 163 166 168 170 172 174 176 178 180 180 178 177 174 171 166 164 163 161 159 158 157 154 149 147 147 148 149 152 154 153 154 155 153 149 145 144 142 139 137 136 134 133 130 125 119 112 109 104 101 100 103 108 114 121 126 128 130 133 133 133 134 133 131 127 120 113 107 102 102 103 105 110 119 124 127 130 132 134 135 138 142 148 155 161 166 170 173 175 175 174 171 165 162 163 163 161 160 161 162 161 159 157 157 155 153 150 148 146 144 139 134 131 129 127 125 125 125 127 132 134 134 135 137 138 140 141 141 141 142 143 143 142 141 141 141 141 140 139 137 136 134 133 132 131 131 129 132 135 135 132 128 122 118 116 117 117 116 114 112 110 108 108 108 104 100 99 99 98 96 95 92 88 79 70 67 67 69 74 79 86 93 99 104 108 110 116 123 126 126 127 128 130 134 137 139 141 142 141 137 133 129 124 122 123 124 126 128 131 133 137 142 147
140 144 149 149 149 151 151 152 154 156 162 173 185 200 217 232 249 267 283 302 319 335 345 348 353 355 353 351 347 338 328 315 304 291 277 268 259 252 248 247 246 242 237 231 230 229 229 227 226 224 222 221 220 218 217 216 213 210 208 208 210 209 206 198 193 189 188 189 188 187 186 184 182 184 185 185 184 182 180 180 179 176 172 168 165 163 160 158 157 157 156 154 154 155 155 156 156 155 153 152 155 159 165 170 173 174 176 178 179 178 177 176 173 168 167 167 166 165 164 163 158 152 150 150 151 151 153 154 154 155 156 154 150 149 150 150 147 143 140 138 137 134 128 121 115 109 105 101 99 100 103 106 111 116 120 125 126 125 125 126 126 124 122 119 113 105 101 101 102 105 110 116 122 126 129 130 131 132 134 139 146 154 161 168 171 173 173 173 172 171 167 167 168 167 165 163 163 164 164 163 162 162 161 158 156 153 152 147 142 137 132 130 127 125 125 125 125 128 131 132 132 133 134 137 137 137 139 141 142 142 142 141 142 142 142 142 142 140 138 138 137 135 134 134 133 134 136 134 131 126 121 119 118 119 119 118 115 114 112 110 110 108 106 102 101 99 96 95 95 94 91 84 75 68 67 67 69 74 82 90 96 101 105 107 113 119 121 123 125 128 130 134 140 142 143 142 139 136 131 126 123 121 123 125 126 128 130 134 136 139 144
148 152 155 154 154 155 155 154 153 154 158 168 178 191 207 224 240 256 272 291 304 318 330 336 341 345 345 345 342 335 326 315 304 290 279 272 264 256 253 252 249 245 240 236 235 234 234 233 231 228 226 224 223 223 220 216 212 210 209 210 210 210 206 200 194 192 190 188 187 187 185 185 187 188 189 189 189 189 187 186 184 179 174 168 165 164 162 160 160 160 158 155 153 153 153 153 153 152 150 150 150 155 163 170 172 171 172 174 175 176 177 177 175 172 171 171 171 171 170 169 164 159 155 154 154 153 154 154 155 157 157 156 154 154 154 155 152 150 148 145 140 135 130 123 116 111 105 101 98 99 99 99 103 108 112 117 116 115 115 116 117 116 116 115 110 102 98 98 101 105 109 113 120 126 129 130 131 132 134 139 147 155 161 168 172 174 173 172 172 172 171 173 174 173 170 167 165 165 166 166 167 166 165 163 159 155 153 148 144 139 135 131 128 125 125 125 125 125 127 127 128 130 132 133 133 134 135 139 140 142 142 142 143 144 144 145 144 142 141 140 140 138 137 136 136 137 137 134 130 126 123 121 120 120 121 119 116 116 113 111 109 108 107 105 103 99 94 93 93 94 91 85 76 69 68 67 66 71 77 85 93 99 102 105 110 115 116 119 124 128 131 135 140 143 142 140 136 131 127 123 120 118 121 123 125 127 130 134 137 139 141
150 155 157 157 158 159 158 157 156 155 156 162 171 183 199 216 230 243 258 275 291 306 319 326 330 332 333 335 335 331 323 314 304 293 286 279 270 260 257 256 254 251 248 245 244 241 240 239 237 234 231 229 228 226 223 219 215 213 213 210 211 210 208 203 199 194 190 188 188 186 185 187 189 191 191 192 193 192 188 186 183 180 174 169 165 164 162 161 163 163 161 158 157 157 156 155 153 151 150 150 150 153 158 165 167 165 165 168 171 174 177 178 176 174 172 172 172 172 172 171 169 164 161 160 158 157 158 158 159 162 163 161 159 159 158 156 157 158 157 152 146 140 134 128 121 113 106 99 97 97 97 97 98 101 104 107 108 106 105 105 106 108 109 110 106 98 95 96 99 102 105 109 118 126 128 130 131 131 133 138 147 155 161 167 171 173 173 173 174 175 176 180 181 179 176 172 169 169 168 169 169 169 167 165 160 155 152 149 146 142 136 132 129 126 125 125 125 125 123 124 124 126 128 130 131 131 134 137 139 141 142 143 144 144 145 145 145 145 143 141 142 141 139 138 138 138 137 135 131 128 125 123 122 123 124 122 119 116 113 110 108 107 107 105 102 98 93 91 90 90 87 81 74 68 65 64 64 69 74 80 89 96 101 106 109 112 113 117 124 128 132 136 139 142 140 138 134 130 126 122 118 116 118 121 123 126 129 134 137 138 137
149 155 158 160 161 162 163 164 162 159 158 160 167 176 187 203 218 230 244 262 279 296 310 318 321 321 319 322 325 324 320 314 307 299 292 284 274 265 261 262 262 260 258 256 253 250 247 245 243 241 237 234 232 230 228 226 221 218 217 214 212 211 209 207 202 195 189 187 186 185 185 188 189 190 192 192 191 190 187 184 182 180 175 168 165 164 162 162 163 164 162 160 159 159 157 156 155 152 150 150 149 149 151 155 157 156 158 162 167 171 175 177 176 174 171 170 171 171 171 171 171 168 166 163 162 161 163 166 167 169 169 168 168 169 166 165 168 170 167 161 151 144 139 134 128 123 111 99 97 97 97 97 95 95 97 101 103 101 98 96 97 100 103 104 100 95 93 94 96 99 103 109 118 125 128 129 130 130 131 136 144 154 162 166 170 172 172 174 177 180 184 187 188 186 182 177 174 173 171 171 171 170 168 164 160 157 154 152 149 144 138 134 131 129 128 128 127 125 122 120 120 122 124 127 128 129 132 134 136 138 140 141 143 143 144 145 145 144 143 142 142 143 141 140 139 137 136 135 133 129 127 124 125 127 127 126 122 117 113 110 107 106 106 105 101 98 94 89 87 85 82 77 71 65 64 64 64 68 73 79 87 96 103 107 110 111 111 116 123 128 133 137 140 141 139 136 133 130 126 122 117 114 115 118 120 124 128 132 134 135 136
145 151 158 163 164 166 167 167 165 163 161 162 167 172 181 194 208 220 234 251 265 282 298 309 313 311 309 311 314 313 313 312 307 301 294 285 277 269 268 270 271 271 269 264 260 256 253 251 249 245 241 238 235 233 233 231 227 224 220 217 215 214 212 208 202 195 190 187 185 185 185 187 188 190 191 191 189 187 185 182 180 179 176 171 167 165 164 164 164 164 163 162 160 158 156 156 156 153 150 148 146 145 145 146 148 149 151 155 160 166 170 173 174 172 171 170 170 171 172 172 172 172 170 167 166 166 168 171 173 174 174 174 176 177 177 177 178 178 174 164 155 148 140 136 133 127 114 104 100 100 100 97 95 93 95 97 99 97 94 92 91 94 97 98 96 91 91 91 93 97 103 111 118 124 127 128 128 127 129 133 140 151 162 166 168 169 171 175 180 186 190 193 194 192 187 182 179 177 175 172 171 170 167 164 162 160 157 155 152 147 142 137 135 134 133 130 128 125 121 118 116 116 118 122 124 126 128 132 134 135 136 139 141 142 143 144 144 142 141 142 143 144 143 141 141 140 140 141 138 133 129 127 127 128 127 126 124 119 114 109 106 106 105 104 102 97 93 89 86 82 77 72 68 64 64 64 65 71 76 81 88 96 104 109 111 112 113 118 124 129 133 138 141 141 138 135 132 129 126 121 116 113 113 115 117 120 124 128 130 133 135
143 146 153 159 164 165 166 166 165 165 164 165 167 172 178 187 199 211 223 240 258 274 290 300 304 301 297 300 301 301 302 304 303 300 294 287 279 274 274 277 279 278 275 270 265 261 258 255 252 248 244 242 239 235 234 233 232 230 226 220 217 216 215 211 205 199 193 189 187 185 185 186 187 188 189 189 187 185 183 182 180 179 177 176 174 170 168 166 166 168 169 168 165 162 159 157 156 154 152 149 147 145 144 144 145 146 147 149 152 157 163 168 170 170 169 170 171 172 173 174 176 176 173 170 170 169 170 173 176 176 176 177 178 180 181 181 182 180 173 163 156 149 142 137 133 126 115 108 105 103 102 99 96 94 93 94 93 93 92 91 91 91 92 93 93 91 91 91 94 99 105 111 117 124 126 126 125 124 126 131 137 146 157 162 165 167 170 175 182 188 192 195 197 196 194 189 186 183 180 177 174 172 169 166 166 165 162 159 155 151 146 141 139 138 135 131 129 128 122 118 116 115 114 117 119 120 124 129 132 133 136 138 140 141 142 143 143 142 141 143 144 145 144 144 146 146 147 147 145 138 134 131 130 129 127 125 124 119 114 110 107 105 103 102 100 95 92 89 85 79 72 68 65 64 64 64 68 75 80 82 86 92 100 107 111 113 116 121 125 129 133 139 142 141 138 133 130 128 125 120 115 112 112 112 114 118 122 126 127 130 133
140 141 145 153 159 163 165 167 168 169 168 168 170 173 177 182 190 202 218 234 251 267 280 290 294 291 287 288 288 288 291 295 298 297 295 290 283 279 281 284 285 283 279 274 269 266 263 258 254 251 249 247 242 238 236 236 237 235 231 225 220 218 216 215 211 205 198 194 190 187 185 187 188 187 187 187 186 183 182 182 181 180 179 178 178 176 172 169 168 172 175 175 173 170 165 161 158 155 154 152 149 146 144 144 146 145 145 144 145 150 156 161 165 167 167 169 172 173 174 177 179 178 175 174 173 172 172 174 176 177 177 179 181 183 182 181 181 180 172 163 156 149 142 135 130 123 113 108 106 104 103 102 99 97 94 93 92 92 92 91 91 91 91 91 91 91 91 91 94 99 103 107 114 121 123 122 121 122 125 130 136 142 151 157 162 167 171 177 183 189 192 194 197 200 200 198 193 189 185 182 179 175 172 171 172 170 167 163 159 154 150 145 142 140 135 131 130 128 124 120 119 118 114 114 115 116 121 125 128 131 134 136 138 140 142 142 141 141 140 141 143 145 145 145 147 150 152 152 149 141 136 133 132 130 126 125 123 118 113 110 107 104 101 99 96 92 89 87 84 77 68 64 64 67 69 70 73 78 80 81 84 90 96 102 107 112 116 122 125 129 133 138 141 140 136 132 129 126 123 118 114 111 111 111 112 116 121 124 126 129 129
138 139 144 151 156 161 165 170 171 170 169 170 172 174 176 178 182 194 211 226 240 257 269 276 279 278 276 277 277 275 279 286 290 292 294 294 289 287 289 290 288 285 283 278 273 270 265 259 255 253 252 250 246 242 242 243 244 242 237 230 224 220 219 219 217 212 205 199 193 189 188 189 189 188 187 187 186 183 182 182 181 182 181 180 180 180 177 171 171 174 179 181 181 180 174 167 162 159 156 154 150 146 144 143 145 144 142 142 142 146 151 155 158 161 163 166 170 173 175 178 180 179 177 176 176 175 175 177 178 179 181 183 186 186 183 181 182 180 173 165 156 148 141 135 130 124 118 112 108 106 104 103 101 100 100 98 93 92 92 91 91 91 91 91 91 91 91 91 93 97 100 104 110 117 119 118 118 119 123 129 135 142 148 154 161 168 174 179 183 187 190 192 196 201 204 204 199 192 188 187 184 180 177 176 176 174 171 167 163 157 153 149 146 143 137 133 132 130 125 123 123 121 117 114 113 114 116 119 123 126 128 132 135 138 141 142 140 139 139 139 140 142 143 144 145 147 150 151 148 143 137 135 134 131 126 124 121 116 112 110 108 104 101 98 95 90 88 87 84 75 66 64 65 69 73 73 75 77 78 80 84 89 94 98 102 108 113 118 123 128 133 136 138 138 135 131 128 126 121 116 112 109 109 109 110 115 119 121 123 125 126
137 140 144 150 155 161 166 170 171 169 169 168 169 172 173 174 177 185 203 221 236 250 259 263 262 262 263 266 265 264 267 275 282 286 291 294 293 293 294 292 288 285 281 277 273 270 264 258 253 251 251 251 250 249 250 250 250 248 244 236 229 223 222 221 220 216 210 204 198 193 191 191 192 191 190 189 186 184 184 183 185 187 188 186 184 181 178 175 173 175 178 181 184 183 178 171 166 162 158 155 151 147 143 142 142 142 142 142 142 144 149 151 153 155 157 161 166 171 174 177 179 179 179 179 180 180 179 179 180 182 184 187 188 188 184 183 185 182 174 165 156 148 142 138 134 130 125 120 114 110 107 104 103 104 104 102 96 94 93 92 91 91 91 91 91 91 91 91 93 96 98 102 107 113 115 115 116 118 122 130 139 145 150 156 164 170 176 181 183 184 187 190 194 199 204 205 201 194 191 191 190 187 184 182 179 176 172 169 165 160 158 155 151 145 140 136 135 132 128 126 124 122 118 115 113 113 112 113 116 119 121 126 131 134 138 139 138 137 137 135 135 137 140 142 142 143 147 147 145 143 140 137 135 131 126 124 120 116 112 111 109 106 102 98 95 90 88 87 85 75 65 64 66 69 72 73 75 76 78 81 85 88 91 94 97 103 109 115 121 128 133 135 136 135 133 129 127 123 118 114 110 107 107 107 107 112 116 118 121 122 122
138 140 144 148 154 160 165 168 169 167 166 165 166 168 170 172 176 181 196 215 235 249 253 253 251 250 252 255 256 254 257 265 273 280 286 289 290 291 291 289 285 281 276 272 268 264 259 254 249 246 247 250 252 253 254 254 252 251 247 240 233 228 226 225 223 219 213 209 203 196 194 194 195 195 193 191 189 186 186 187 189 191 192 190 185 180 178 176 175 176 178 179 181 182 178 173 168 164 160 156 154 150 145 142 142 142 142 142 142 143 147 149 150 150 153 157 162 167 172 175 177 178 180 180 182 182 181 180 181 183 184 187 188 187 185 185 185 182 174 163 154 147 143 140 138 136 132 127 120 113 109 106 105 105 104 102 98 95 94 92 91 91 91 91 91 91 91 91 95 98 100 102 105 110 113 114 117 122 128 136 144 149 155 162 168 172 177 181 183 183 184 186 189 194 200 203 200 196 194 195 196 194 191 188 185 180 173 170 168 165 164 160 155 149 143 139 138 135 132 128 126 123 119 116 115 112 109 109 110 112 116 121 127 130 133 134 134 134 134 134 133 134 136 139 140 141 143 142 140 140 141 138 136 131 127 124 122 118 115 113 110 106 102 98 96 91 87 86 85 75 65 64 65 67 69 72 74 76 79 83 86 88 89 90 94 100 107 114 119 126 133 136 135 132 130 127 124 121 116 111 108 107 107 107 107 110 114 116 118 119 119
139 141 143 146 150 157 163 166 166 166 164 163 164 165 168 170 174 178 185 204 227 243 249 246 243 241 243 246 248 248 251 257 265 272 278 281 283 283 284 282 279 274 268 264 259 254 250 247 242 240 241 245 249 252 253 253 252 251 248 242 236 232 229 227 225 221 216 211 206 202 200 201 201 201 199 196 193 191 190 189 190 190 191 188 183 180 180 180 179 180 179 179 179 179 177 173 169 164 160 157 155 153 148 144 142 142 142 142 142 142 146 148 147 146 149 154 158 164 171 174 175 176 177 178 180 181 180 179 181 181 182 184 185 185 184 183 182 178 170 160 153 149 145 142 141 138 135 131 125 118 112 107 105 104 102 99 97 96 95 94 92 92 91 91 91 91 91 91 93 98 101 104 106 109 112 116 121 126 132 140 148 153 160 166 170 175 179 181 183 183 182 182 183 187 193 197 198 197 197 199 200 199 196 195 191 186 177 173 172 170 167 162 157 152 145 141 138 136 133 130 127 124 120 117 115 112 107 105 105 107 111 117 122 126 129 130 130 130 131 131 130 131 134 137 139 141 142 141 139 139 139 140 139 135 130 127 124 119 116 113 110 106 103 100 97 92 87 85 84 75 65 63 63 64 66 69 71 73 78 84 87 88 88 89 94 101 109 114 118 124 131 134 132 130 127 124 121 118 113 110 108 107 107 107 107 110 113 116 117 117 116
137 139 141 143 147 153 158 162 165 168 165 163 163 164 166 171 176 181 184 199 222 240 243 241 237 234 234 236 239 242 246 251 258 264 267 270 271 272 274 273 269 264 258 253 249 245 242 238 235 234 235 239 243 247 248 249 251 250 248 243 239 234 231 229 226 223 218 212 208 206 207 207 209 209 207 203 199 195 194 192 190 188 187 186 184 184 184 184 183 181 180 178 175 176 175 171 168 164 159 156 155 152 148 145 143 142 142 142 142 142 145 146 143 142 145 149 153 160 167 170 171 171 173 175 177 178 178 177 178 179 180 181 183 183 181 180 178 175 168 161 156 152 147 143 141 139 137 133 128 122 116 110 106 103 100 100 99 98 97 96 94 93 92 91 91 91 91 91 92 97 102 105 106 108 112 119 125 130 136 141 148 156 163 167 171 176 180 181 182 184 183 181 180 181 185 190 195 198 200 202 203 201 200 199 196 191 183 176 173 171 166 161 157 152 146 141 138 135 133 130 127 123 119 117 115 111 106 102 101 103 107 113 118 121 124 124 124 125 125 125 124 127 131 137 139 141 142 141 139 139 139 140 141 137 134 131 126 120 117 114 109 107 105 101 98 93 90 88 85 76 65 61 61 62 63 65 66 69 76 83 86 88 89 91 96 104 111 115 118 122 128 132 131 128 125 121 118 115 112 110 109 109 109 107 107 108 112 114 115 114 114
133 135 137 140 145 150 157 163 167 167 165 162 162 164 168 174 180 184 186 198 219 234 239 238 233 230 228 228 230 234 238 245 251 256 258 259 259 261 262 262 257 249 245 243 242 238 233 231 228 228 229 233 237 240 243 246 249 249 248 245 241 237 235 232 228 224 219 215 211 209 210 211 212 211 210 207 204 202 199 196 192 188 186 185 185 187 188 188 184 181 179 176 173 172 172 171 168 163 158 156 153 150 147 146 144 142 142 142 142 142 143 142 140 140 142 144 149 156 162 165 165 167 169 170 172 175 175 173 173 176 178 179 180 181 179 177 177 175 173 169 164 158 150 145 141 140 139 136 130 125 119 113 108 105 105 105 103 100 98 97 95 94 93 91 91 91 91 91 93 98 101 103 103 104 110 118 127 133 138 142 149 157 162 165 170 175 178 179 180 182 181 179 178 177 180 184 190 197 201 203 204 203 201 200 198 194 187 179 174 170 165 161 156 151 147 143 139 135 133 130 127 123 119 117 115 113 108 102 101 101 105 111 116 118 120 119 119 120 120 119 120 124 130 135 137 140 142 141 139 139 139 142 142 139 136 133 128 123 120 116 112 109 106 102 98 95 92 88 85 77 67 62 60 60 61 61 62 66 74 82 86 88 91 95 101 107 112 117 120 123 127 131 130 128 124 120 117 114 111 110 111 110 109 108 107 107 109 111 112 113 113
131 133 137 141 145 150 157 163 164 162 158 157 159 162 166 174 180 183 186 197 216 232 238 235 230 226 224 224 225 226 230 236 244 251 252 250 250 252 253 251 244 237 234 233 232 228 225 223 221 221 223 227 231 234 238 243 246 248 248 247 245 244 241 238 234 229 223 219 215 214 215 216 216 215 214 215 217 216 210 203 198 192 189 186 186 188 190 190 186 183 181 179 177 177 177 177 172 167 161 158 155 152 150 149 146 142 142 142 142 142 142 140 140 140 141 144 149 153 157 159 161 163 165 166 166 170 170 167 167 170 174 175 177 178 178 178 178 179 179 175 169 162 154 148 143 141 141 138 133 128 124 117 110 108 108 107 104 101 98 96 95 93 92 91 91 91 91 91 92 95 97 99 98 99 104 116 129 137 140 143 148 153 157 161 166 171 173 174 175 174 173 173 173 173 175 180 185 192 198 202 203 204 203 200 198 195 189 181 175 172 167 162 158 153 149 146 141 136 133 130 128 125 121 117 115 114 111 106 102 101 103 107 112 115 116 116 115 117 117 116 118 123 129 133 135 138 140 141 139 140 141 142 141 137 134 131 127 124 122 121 116 110 108 105 100 96 91 87 83 78 70 64 61 60 60 59 61 65 74 83 88 90 93 99 105 110 114 119 123 125 128 130 130 127 123 119 116 113 111 111 111 110 110 109 107 107 107 109 110 111 111
137 139 143 146 148 151 154 156 156 154 151 151 155 160 166 173 178 181 186 196 215 229 232 230 226 224 223 223 221 220 223 229 238 245 246 244 244 245 247 244 238 231 228 225 221 218 217 216 215 215 218 222 227 230 234 239 243 246 247 248 250 251 248 243 239 234 231 228 224 223 224 223 224 223 220 223 227 226 221 213 204 196 191 190 190 190 191 189 187 185 184 182 181 182 184 183 180 174 166 162 158 155 153 152 149 145 143 142 142 142 142 140 140 140 141 144 148 150 152 153 156 157 158 159 160 163 163 160 159 162 166 170 174 177 179 180 181 182 181 177 170 163 156 150 146 143 143 139 135 133 127 120 112 109 108 107 105 102 99 97 95 93 92 91 91 91 91 91 91 92 93 94 94 94 100 114 129 137 142 145 147 149 151 155 160 163 166 169 168 165 164 166 168 169 172 175 179 186 194 198 203 206 204 200 197 193 188 181 177 174 170 166 161 156 152 147 143 137 133 130 129 127 123 119 117 115 113 109 106 103 101 102 107 111 111 111 112 113 115 116 117 120 125 130 134 136 138 140 141 142 142 142 140 136 132 129 126 123 123 123 118 113 111 106 100 95 89 85 81 77 73 67 64 61 60 59 61 65 75 84 89 93 97 104 109 113 117 122 126 128 130 130 129 127 123 117 114 111 110 111 111 110 110 109 108 108 107 108 108 107 108
142 144 146 148 149 149 149 147 147 149 148 150 152 157 163 171 176 180 186 196 211 222 225 225 224 221 221 220 218 215 218 224 231 237 239 237 239 242 243 241 236 229 224 219 216 213 211 211 211 212 215 219 223 228 233 236 239 243 245 247 251 253 250 245 242 239 237 235 233 232 232 231 230 228 225 227 229 229 227 223 214 204 199 197 195 193 191 188 186 185 185 184 183 183 184 184 182 175 169 162 158 155 154 153 150 147 146 146 144 144 144 143 140 140 141 143 146 147 148 148 149 151 152 152 152 154 154 151 151 153 157 162 169 175 180 182 182 183 181 176 170 163 156 152 149 147 145 141 136 133 126 119 114 110 109 108 107 106 103 101 99 98 96 93 91 91 91 91 91 91 91 91 91 92 98 110 125 136 143 147 148 148 149 149 152 155 158 161 162 159 158 160 163 164 168 171 176 183 190 195 201 205 203 198 194 190 185 180 178 176 174 171 166 160 155 150 145 139 134 132 132 131 127 122 118 117 115 114 110 105 100 98 101 105 106 107 107 108 111 114 116 117 121 127 133 135 138 142 143 143 143 143 141 137 132 127 123 121 121 119 115 110 107 102 96 90 85 81 77 73 70 67 63 61 60 59 60 65 75 84 90 94 101 108 113 116 120 126 130 132 133 131 129 128 124 117 111 109 109 110 110 109 108 108 107 106 106 106 105 104 105
141 142 145 146 146 145 144 144 144 146 148 150 153 156 161 168 173 177 182 191 203 215 221 222 221 219 217 218 215 212 215 221 226 231 233 233 236 240 242 240 235 230 224 219 215 211 208 208 209 210 213 216 219 225 231 234 236 239 242 244 248 251 249 246 244 242 241 240 238 237 236 236 235 233 232 234 236 237 235 232 227 220 213 208 201 197 194 191 188 185 187 186 185 184 183 182 180 175 168 162 158 156 155 153 150 147 146 146 146 147 147 146 143 140 140 141 143 144 145 145 146 147 148 146 144 146 145 143 143 145 148 153 161 169 175 178 179 179 178 174 168 161 157 153 150 149 147 142 136 129 123 119 116 113 112 113 113 109 105 103 102 101 98 97 96 95 93 91 91 91 91 91 91 94 100 110 123 133 142 148 148 147 146 145 146 147 148 151 154 152 152 154 157 160 165 169 175 181 186 192 198 202 201 196 191 188 184 180 178 177 176 174 170 164 157 152 148 143 137 136 135 135 130 124 120 119 118 117 113 107 101 96 95 98 100 102 102 104 108 112 114 115 119 125 132 136 140 142 142 142 143 143 142 139 133 127 122 118 115 111 110 107 101 95 88 82 78 76 73 69 65 61 60 60 60 59 60 66 75 84 90 95 103 111 116 120 125 130 134 136 136 133 130 128 125 117 111 110 110 109 108 107 106 106 106 104 103 102 102 103 104
137 139 141 142 143 143 144 144 145 147 150 152 154 157 160 165 171 175 177 185 200 211 217 219 217 215 214 216 214 212 214 220 225 228 229 229 232 235 237 236 234 230 226 221 217 213 208 207 208 211 214 215 217 222 226 229 232 235 237 239 243 246 245 244 243 243 243 242 242 242 241 241 241 240 240 242 243 244 243 239 236 232 226 220 211 204 200 197 193 192 191 190 189 186 184 181 178 174 169 162 159 158 158 155 151 146 146 146 146 147 148 148 146 143 140 140 141 141 142 144 144 144 144 141 139 139 138 137 137 139 142 146 153 161 167 169 170 170 170 168 164 160 157 154 151 148 145 140 134 127 121 119 118 116 116 118 116 111 107 106 106 104 102 101 103 105 102 95 91 91 91 91 91 95 102 114 126 136 142 146 146 145 144 142 141 140 140 143 145 145 146 148 152 157 163 168 174 180 184 189 196 199 198 194 189 185 181 178 176 177 176 175 172 167 159 154 151 148 142 139 138 136 132 127 123 122 120 118 115 110 105 98 94 92 94 97 100 103 107 110 113 115 119 125 133 138 140 141 142 142 143 143 143 140 135 127 121 116 111 106 105 101 95 89 80 73 71 70 68 64 60 58 58 59 60 59 62 68 78 86 91 97 106 113 118 122 126 132 137 139 138 135 132 129 125 118 113 111 110 108 106 105 104 103 103 102 101 100 101 102 103
136 137 138 139 141 143 144 145 146 147 150 153 157 159 160 164 171 174 176 181 196 209 214 215 214 213 213 214 212 210 210 217 223 225 225 224 226 230 231 232 232 230 227 223 220 215 210 207 207 210 213 215 218 220 223 226 228 230 230 233 237 239 240 240 242 244 245 245 245 247 246 246 246 247 248 249 249 249 249 247 245 241 236 232 225 219 215 211 204 199 198 195 192 188 185 182 177 172 170 167 164 164 162 157 151 147 146 146 147 149 149 149 147 145 142 140 139 139 141 142 143 142 140 139 138 136 134 132 132 134 138 141 146 151 156 159 159 158 157 158 158 157 156 154 150 146 142 137 133 129 125 123 123 120 120 120 119 114 111 113 113 110 106 105 106 108 104 96 91 91 91 91 91 96 104 120 131 136 139 141 142 142 141 138 135 133 133 135 138 140 143 146 149 155 161 167 174 179 182 187 192 193 193 191 187 183 178 175 175 176 176 175 173 169 162 156 153 152 147 142 140 138 135 131 126 124 121 119 117 114 109 102 95 89 88 92 97 103 106 109 112 116 120 126 132 136 138 140 142 142 143 144 143 140 135 128 122 116 111 107 104 99 92 84 75 68 66 64 60 58 58 58 58 58 59 60 64 71 81 88 93 99 108 114 118 121 125 132 138 140 139 136 132 129 125 120 115 112 110 108 105 103 102 101 101 100 100 100 100 101 101
135 137 138 140 142 144 145 146 147 148 149 154 158 159 159 162 169 173 174 180 192 205 212 213 213 211 210 210 208 205 205 212 218 220 220 221 223 225 227 229 231 230 229 225 222 216 210 206 205 207 210 214 216 219 221 224 225 226 224 226 229 231 233 237 241 246 247 246 247 249 250 249 251 252 254 255 254 254 253 253 251 248 245 242 238 233 228 222 214 208 204 200 194 189 187 183 178 174 172 169 167 164 160 156 151 149 150 150 150 150 149 148 146 144 142 140 140 139 138 138 138 138 137 137 136 134 131 128 128 131 134 136 139 142 147 149 148 147 146 149 151 152 153 152 148 144 140 136 134 133 132 130 129 126 123 122 120 117 115 116 116 113 110 108 107 104 101 95 91 91 91 91 91 95 106 121 130 135 137 138 139 138 137 133 130 128 128 130 134 139 144 148 153 157 163 169 174 178 181 186 188 188 188 188 186 182 177 174 174 175 176 175 173 169 164 158 155 154 151 146 143 141 139 134 129 125 121 118 117 116 113 106 99 91 86 87 92 98 104 108 113 118 122 126 132 134 135 138 140 141 143 145 144 140 135 130 124 118 113 110 105 97 88 78 70 66 62 58 58 58 58 58 58 58 59 61 67 75 83 90 95 102 109 115 118 120 125 132 138 139 139 136 133 129 126 122 117 114 111 108 105 103 102 101 101 100 100 100 100 100 99
136 138 139 140 142 143 145 147 147 149 150 154 157 158 158 161 166 169 172 178 191 205 214 215 213 210 208 206 204 201 201 207 211 214 216 219 221 222 224 227 229 230 228 225 221 216 211 206 204 204 206 209 211 214 218 220 220 220 219 219 221 223 227 232 237 244 247 246 247 250 252 254 256 257 259 260 260 258 257 257 256 253 251 248 246 241 235 229 222 214 210 207 200 193 188 185 184 182 178 173 168 163 160 157 154 152 153 153 151 150 149 148 146 144 143 142 141 138 136 134 133 133 133 133 132 131 127 126 126 127 131 134 137 140 142 142 141 140 140 143 145 148 150 149 147 144 141 137 136 137 137 135 132 129 126 122 120 117 115 116 116 114 112 109 105 101 98 93 91 91 91 91 91 96 106 119 129 134 135 136 136 134 133 129 126 124 124 127 134 141 147 152 157 161 167 172 175 177 179 182 183 182 182 182 182 181 177 175 174 175 175 173 171 168 162 157 155 154 152 149 146 145 142 137 133 128 123 117 116 116 114 109 103 95 86 84 87 93 101 108 114 120 125 129 133 135 135 137 140 141 144 146 143 138 135 131 125 118 113 110 103 92 84 75 70 66 62 58 58 58 58 58 58 58 61 65 71 77 85 90 95 101 107 114 117 121 126 132 136 137 137 135 132 129 127 123 119 116 113 110 107 103 101 101 100 100 101 101 101 101 99
139 139 139 139 140 143 146 149 150 152 154 155 156 157 158 160 163 166 170 178 193 208 217 219 217 213 209 206 201 198 196 199 203 208 213 218 220 221 222 225 227 228 226 223 219 215 211 205 201 201 202 203 205 207 211 212 212 212 213 213 214 217 220 226 233 240 244 246 248 251 255 259 260 260 262 263 263 263 262 260 257 255 253 252 251 248 242 237 232 223 218 214 206 197 192 188 187 186 183 177 169 163 160 158 156 155 155 154 153 152 151 150 148 145 142 141 141 138 134 131 131 130 129 128 126 126 126 126 126 126 130 134 136 138 138 137 136 137 137 138 140 143 146 146 146 145 142 139 137 137 138 137 134 130 127 123 120 117 116 116 116 116 113 108 103 100 97 91 91 91 91 91 91 98 107 117 126 130 132 132 132 130 128 126 122 122 122 127 134 143 149 154 159 164 168 173 176 177 178 179 180 179 177 176 176 177 176 175 174 173 171 169 168 165 159 155 154 153 152 151 148 146 144 140 135 132 126 118 116 116 114 110 106 96 86 81 83 90 100 108 115 120 126 131 135 136 137 139 142 144 145 145 140 136 134 131 125 119 114 109 101 91 83 76 70 66 62 58 58 58 58 58 58 60 64 68 73 79 85 90 93 97 103 110 116 120 125 130 134 135 134 134 133 130 127 124 120 117 115 112 108 104 101 100 100 100 101 102 103 102 100
140 140 140 139 140 143 147 151 153 154 156 157 156 156 157 157 159 163 168 175 192 209 217 219 220 218 212 205 200 195 192 192 195 200 208 214 217 218 220 223 226 226 224 221 217 213 207 201 197 197 198 199 199 202 204 205 205 206 207 208 209 211 215 221 229 237 243 246 249 252 257 260 262 262 263 263 264 264 262 259 256 255 253 252 253 251 248 245 240 232 224 218 208 200 195 191 188 186 182 177 170 164 161 160 158 158 159 158 157 157 155 151 149 146 141 140 140 137 133 130 128 128 126 126 126 126 126 126 126 126 129 132 133 133 133 133 133 134 133 134 136 138 141 143 145 146 145 142 140 139 139 138 134 131 127 124 122 121 121 121 120 119 114 109 104 100 96 91 91 91 91 91 91 100 109 118 124 126 126 126 126 125 125 124 122 122 123 127 136 145 151 156 162 165 167 170 174 176 178 179 178 177 176 173 172 173 172 171 171 170 166 164 163 160 157 154 153 152 152 150 148 146 144 141 137 134 128 121 118 116 113 110 105 96 86 80 81 87 98 107 114 119 125 131 134 136 138 141 145 147 146 143 137 134 133 131 126 119 113 107 100 92 84 77 71 68 64 60 58 58 58 58 58 59 64 69 73 78 83 88 92 94 97 104 112 119 124 128 133 134 134 135 134 131 129 126 120 116 114 112 109 104 101 100 100 101 102 102 102 101 100
139 139 139 139 140 143 147 150 153 154 155 156 155 154 154 155 157 160 163 169 184 204 214 218 219 218 213 206 199 195 191 190 192 196 203 210 213 216 218 222 224 224 222 219 215 211 203 197 194 194 194 194 195 196 198 200 200 201 201 203 204 207 211 217 225 234 241 247 250 253 256 259 261 262 262 261 262 261 259 255 253 253 251 251 251 249 247 245 242 236 228 219 212 206 200 194 190 185 181 176 170 165 163 161 159 160 162 162 161 160 157 152 150 146 141 140 140 137 134 132 129 127 126 126 126 126 126 126 126 126 128 128 128 129 129 130 131 131 131 131 131 133 136 140 144 148 149 147 146 144 143 140 135 131 128 127 126 125 127 127 124 121 117 111 105 100 96 93 93 92 91 91 92 100 109 116 122 122 121 120 121 121 122 122 122 122 125 130 138 148 156 161 164 163 164 166 170 174 177 179 180 179 176 172 170 169 167 165 165 164 161 160 159 158 155 154 153 152 150 149 148 146 144 140 138 135 130 125 120 116 113 110 105 97 88 80 77 83 94 105 112 117 124 130 133 135 138 141 145 146 145 141 135 132 131 130 125 118 111 105 99 94 88 81 72 67 64 62 59 58 58 58 58 60 64 67 71 75 81 87 91 92 95 100 108 116 121 125 129 132 134 135 135 132 129 126 119 115 112 111 108 104 101 101 101 102 103 103 101 99 98
138 138 139 139 139 141 145 148 151 152 154 154 153 153 153 155 156 158 160 164 176 196 212 218 218 216 211 204 198 195 191 189 189 193 197 203 208 212 214 215 216 218 216 215 213 209 202 195 192 191 190 190 191 193 194 195 197 197 197 198 199 202 207 214 221 229 238 246 251 253 254 257 260 260 259 259 259 257 254 251 250 250 249 248 246 244 241 240 239 235 230 223 218 213 207 200 192 186 181 177 172 168 164 162 163 164 164 164 163 161 158 153 148 143 139 139 139 137 135 133 130 127 126 126 126 126 126 126 126 126 127 126 126 126 127 127 128 129 129 129 130 132 135 139 145 149 151 151 150 148 145 141 136 133 132 132 132 133 133 132 129 125 120 114 107 102 98 96 97 96 94 91 92 98 106 113 118 119 117 114 115 118 121 123 122 122 125 132 140 149 157 162 163 162 161 164 169 173 176 178 180 180 175 169 166 165 163 161 160 159 157 157 157 156 154 153 152 150 149 149 148 147 144 140 139 138 133 127 122 117 114 111 106 98 87 77 74 79 90 102 110 115 121 128 132 134 137 140 143 144 142 138 134 131 129 129 124 116 109 102 99 94 89 82 75 69 65 63 60 58 58 58 58 58 61 65 67 70 76 82 87 90 94 98 104 111 116 120 125 129 133 135 135 132 128 125 120 115 112 109 107 103 102 102 101 101 103 103 100 97 96
138 138 138 138 138 139 142 146 149 151 152 151 150 151 153 155 156 157 158 161 170 189 207 215 216 213 209 203 198 193 189 186 187 190 193 197 201 203 203 201 203 206 206 205 205 203 198 193 191 190 190 190 190 192 192 193 195 197 198 198 198 201 205 211 218 225 234 244 250 252 253 255 257 257 257 257 256 253 250 248 247 247 246 244 241 237 234 234 233 232 229 227 224 219 213 205 196 188 184 183 178 172 167 166 167 168 167 166 164 162 158 154 147 141 139 139 139 138 135 133 132 132 133 134 133 131 130 130 129 127 126 126 124 124 124 124 123 124 125 129 130 131 134 139 146 151 153 153 151 149 146 141 139 137 136 137 139 139 138 137 135 132 125 117 111 106 101 98 98 97 94 90 89 94 102 108 113 114 111 108 108 113 121 125 126 126 129 136 144 149 155 160 162 161 159 160 165 170 174 176 178 177 172 166 163 162 161 159 157 157 156 155 155 153 152 151 150 149 148 148 148 147 143 140 140 139 135 129 123 118 114 111 106 97 84 75 73 76 87 98 106 112 120 128 132 133 135 138 141 141 138 135 132 129 126 124 119 112 104 97 93 89 86 82 77 73 69 65 60 58 58 58 58 58 58 62 64 66 70 76 81 86 91 97 103 109 113 117 121 127 132 135 133 128 125 124 121 117 113 109 105 103 103 103 101 99 99 99 97 95 93
138 137 137 137 136 137 140 143 147 149 150 149 148 150 152 155 157 157 157 159 167 181 197 207 209 208 204 200 196 192 187 182 180 182 185 187 191 192 190 190 192 195 194 194 194 194 192 192 192 190 190 190 191 192 192 192 195 199 201 200 201 202 206 209 216 222 231 240 246 249 251 253 254 255 255 255 252 248 246 245 244 244 242 239 234 229 228 228 227 228 228 228 227 223 216 209 200 192 189 187 184 178 175 174 175 174 174 171 166 161 158 155 148 140 139 139 141 141 137 134 134 135 138 139 138 137 135 133 132 130 129 127 124 123 122 120 118 118 121 125 129 130 133 139 146 151 153 152 151 148 146 142 142 142 141 141 143 143 142 142 141 138 130 123 117 111 105 102 100 98 95 90 87 89 97 104 107 107 105 102 103 111 119 125 129 132 136 142 146 150 154 158 159 159 157 158 161 166 171 173 175 174 168 164 162 160 159 158 156 155 153 151 151 149 146 146 147 148 148 147 147 146 143 140 139 137 136 131 125 120 115 109 103 94 83 75 73 76 84 93 101 109 118 128 132 132 134 137 139 137 134 132 130 127 123 118 112 104 95 89 85 82 80 79 77 74 71 68 62 58 58 58 58 58 58 60 63 64 66 71 76 80 87 94 101 107 112 116 120 125 130 131 127 122 120 121 120 118 114 108 104 102 103 102 99 95 94 94 93 92 91
135 135 134 135 136 136 138 141 144 147 147 147 147 148 150 153 156 157 156 156 162 174 187 196 201 201 199 196 194 189 184 178 173 173 175 177 179 179 179 180 183 184 184 184 185 186 186 188 191 190 190 191 193 194 193 192 194 198 200 201 202 205 210 213 215 220 228 236 242 245 248 250 253 254 253 250 246 243 242 241 240 239 235 230 225 221 221 222 222 224 226 227 226 223 218 211 202 194 189 189 186 183 184 185 182 180 181 178 171 163 159 155 149 142 139 140 144 142 139 136 134 135 138 138 138 139 138 136 135 132 130 127 125 124 124 120 117 116 116 120 125 129 133 138 143 147 150 149 147 146 145 144 143 143 144 143 144 145 145 145 144 141 134 128 124 117 110 105 102 100 95 89 86 87 94 101 103 101 98 97 100 108 117 125 131 137 141 144 146 150 152 156 157 156 155 157 160 164 167 169 169 169 166 163 161 158 155 154 153 153 151 148 146 143 141 142 143 145 146 146 146 144 142 140 139 138 137 136 130 123 116 107 100 91 81 74 73 76 81 88 95 105 116 125 130 131 132 135 135 134 132 130 127 123 117 112 105 96 87 81 78 76 73 73 73 73 72 67 61 58 58 58 58 58 58 60 63 65 67 72 75 77 83 90 96 103 108 114 119 122 126 126 122 118 116 116 116 114 110 105 103 101 101 100 98 94 90 87 87 87 87
131 132 132 135 135 136 137 139 142 144 145 145 145 145 148 152 155 156 156 155 159 168 179 187 191 193 193 191 189 184 179 172 168 167 166 166 166 168 169 174 175 176 175 174 176 177 179 182 186 190 191 194 196 196 194 194 194 195 197 199 202 208 213 215 215 219 225 232 238 242 245 248 251 251 249 244 241 239 237 236 234 230 226 221 217 215 216 217 218 220 221 222 223 222 220 214 204 194 189 188 187 186 187 189 187 185 187 185 178 169 162 157 150 143 140 143 145 143 139 136 136 138 142 142 142 143 143 140 138 134 129 126 124 126 126 122 118 115 114 116 123 127 131 134 138 141 145 145 144 143 144 144 143 143 144 144 144 145 146 146 145 141 136 131 128 122 113 107 103 100 94 88 85 86 90 95 97 94 93 93 96 104 116 125 133 140 143 143 147 151 153 153 154 154 154 157 158 160 162 163 163 165 164 160 159 155 150 149 149 149 149 145 142 140 139 139 139 140 142 144 144 143 142 140 139 138 139 138 133 125 116 106 97 87 78 72 72 73 76 82 91 101 113 123 128 130 131 133 132 131 130 128 124 118 111 105 97 88 81 76 74 72 68 67 68 69 68 65 60 58 58 58 58 58 58 60 64 66 69 74 77 79 83 87 92 98 104 110 114 117 121 122 120 117 114 111 110 108 106 103 101 100 100 100 98 94 88 83 81 81 82
127 128 130 135 136 135 134 136 139 142 143 144 144 144 146 149 153 155 155 154 157 162 170 177 181 183 184 183 181 176 170 166 163 160 159 158 159 161 166 170 171 171 168 168 169 169 170 175 179 186 191 194 196 196 196 195 194 194 196 198 202 209 214 214 216 220 225 231 236 239 243 245 247 247 243 239 237 236 233 229 225 220 217 213 211 210 211 212 213 213 215 217 219 221 222 219 209 199 191 188 187 187 189 190 189 188 189 187 182 176 168 160 152 146 144 145 144 141 138 138 140 143 145 147 148 147 145 143 141 136 131 127 124 125 126 123 119 115 113 115 120 125 127 129 132 136 140 141 141 140 141 142 141 142 143 142 142 143 145 145 144 141 136 132 129 123 115 109 104 99 93 87 85 85 87 89 89 88 88 89 92 100 114 125 135 143 145 146 149 152 153 153 153 153 154 156 157 158 158 159 161 163 162 159 156 151 146 144 144 145 145 141 138 137 136 137 136 136 138 140 141 142 142 141 139 138 140 140 136 129 120 108 97 86 77 73 72 71 71 76 85 96 108 119 126 129 130 130 129 127 126 124 119 113 105 97 89 82 77 74 72 69 65 64 64 64 64 62 59 58 58 58 58 58 58 60 65 69 72 76 78 81 84 87 92 96 102 108 111 115 120 121 120 118 115 111 108 106 103 101 100 100 100 100 98 93 86 80 76 76 78
125 126 127 130 133 134 132 134 137 139 142 143 144 144 145 148 151 154 154 154 157 160 162 168 173 175 175 173 171 166 162 161 159 158 158 158 159 160 163 165 166 167 165 164 164 163 163 166 171 178 186 190 192 194 196 195 194 194 195 198 203 210 215 216 218 222 226 230 234 238 240 241 242 240 237 234 233 231 226 222 217 211 208 207 206 206 205 206 207 208 211 213 216 220 223 222 216 206 197 191 189 189 190 190 189 190 190 187 183 178 168 160 154 150 148 147 145 142 141 143 146 147 149 151 151 150 146 145 142 136 131 127 125 125 125 122 119 115 111 112 116 121 122 123 125 129 133 135 136 138 139 140 140 142 143 142 141 141 143 144 142 139 136 132 128 123 117 112 107 100 93 87 85 85 85 85 85 85 85 85 87 95 109 125 138 147 149 150 152 154 154 153 153 154 155 157 157 158 157 158 158 159 159 156 153 149 144 141 140 140 139 135 133 132 133 133 134 135 136 138 140 141 142 141 139 139 140 142 139 134 126 115 104 91 82 78 75 70 68 71 78 87 98 111 121 126 126 125 124 122 120 119 114 108 98 89 83 79 76 73 70 67 64 61 59 59 59 59 58 58 58 58 58 58 58 60 65 70 73 75 77 80 83 87 91 95 101 109 113 116 119 121 119 118 117 113 110 107 104 102 101 100 100 99 97 93 86 80 74 72 74
122 122 122 124 128 130 130 132 134 137 140 143 145 145 146 148 151 153 154 156 158 159 157 161 165 167 166 165 163 159 156 156 156 157 159 160 161 159 161 161 162 163 162 161 161 159 158 162 165 170 176 181 184 188 193 195 194 194 196 199 205 212 215 218 219 223 227 229 230 233 236 236 235 233 231 228 227 225 220 215 209 204 202 202 201 200 200 201 202 204 208 213 215 219 223 223 218 211 204 198 194 193 192 191 190 190 190 188 182 176 167 160 155 153 154 152 148 145 145 145 147 153 156 157 155 151 147 146 143 138 134 131 129 129 127 123 120 115 110 108 111 115 115 114 115 120 123 126 130 134 138 140 141 143 143 141 139 139 141 140 138 136 134 131 128 125 120 115 110 103 96 90 87 87 85 85 85 85 85 85 85 93 107 124 137 147 151 153 154 155 154 154 154 156 157 157 157 158 157 157 157 157 157 154 150 147 142 139 137 136 132 131 128 127 128 130 132 135 137 139 141 142 142 141 139 138 140 142 140 136 129 120 110 97 88 83 76 69 66 67 70 76 87 99 110 118 120 120 118 116 114 113 110 104 93 85 79 76 75 72 68 64 60 57 55 54 54 56 58 58 58 58 58 60 61 63 68 71 74 75 77 81 84 86 90 96 107 116 118 117 119 120 119 119 118 115 112 110 108 107 106 104 101 98 94 91 85 79 73 70 70
119 120 121 122 125 128 129 131 133 135 138 141 144 146 148 149 150 153 155 156 158 158 155 155 159 161 161 160 159 155 151 151 152 153 156 158 159 158 158 159 159 158 157 157 155 154 155 157 160 163 167 170 174 179 186 192 196 196 196 199 204 209 213 216 220 223 225 225 224 226 229 230 230 227 223 220 219 217 214 209 203 199 198 197 196 195 196 198 200 203 207 213 216 218 221 222 220 216 212 206 200 196 194 192 191 191 191 190 185 178 170 162 159 160 161 158 152 149 149 150 155 163 167 167 161 154 150 147 143 139 136 134 133 131 128 125 121 115 109 106 106 109 109 107 108 111 113 115 122 130 137 142 142 141 140 139 137 137 137 135 133 132 130 129 128 127 123 117 112 108 102 94 89 87 85 85 85 85 85 85 85 91 103 117 129 140 148 151 153 155 155 156 156 156 156 156 155 154 153 153 154 154 154 151 147 143 138 135 133 131 129 126 122 121 123 126 130 136 141 141 143 144 144 143 140 138 139 140 140 138 131 121 111 99 90 82 75 68 65 64 66 70 78 88 97 106 111 111 111 109 106 105 104 99 91 83 78 75 72 70 64 58 53 52 52 52 52 54 57 59 62 63 64 67 68 70 72 75 77 78 82 85 86 87 92 103 115 122 123 120 120 119 120 120 120 119 117 115 114 114 112 106 101 96 92 88 84 77 71 68 66
