ncols        70
nrows        70
xllcorner    350018.87224
yllcorner    6736959.87337
cellsize     30.000000000000
NODATA_value  -99999
434.3577880859375 440.5245361328125 447.29248046875 456.4151611328125 467.112457275390625 478.757965087890625 490.74749755859375 506.526031494140625 523.5169677734375 538.2747802734375 548.9459228515625 559.05792236328125 565.94622802734375 568.6748046875 568.79107666015625 568.64642333984375 567.76275634765625 564.43682861328125 557.912353515625 553.0482177734375 552.42010498046875 553.94940185546875 557.35198974609375 561.00054931640625 567.43243408203125 576.09564208984375 586.2900390625 594.3248291015625 600.82550048828125 605.097900390625 609.1300048828125 616.1553955078125 618.38958740234375 620.33831787109375 620.45562744140625 618.76605224609375 614.70928955078125 612.9825439453125 614.01214599609375 612.59503173828125 608.86712646484375 601.88592529296875 592.6572265625 584.72064208984375 582.75750732421875 585.21551513671875 590.1431884765625 596.08612060546875 601.38690185546875 606.1810302734375 610.2666015625 614.3759765625 617.72607421875 621.2919921875 623.620361328125 625.06988525390625 627.57366943359375 628.52349853515625 628.91741943359375 629.860107421875 626.85858154296875 620.2169189453125 613.97369384765625 604.1727294921875 589.91015625 573.8553466796875 559.29730224609375 548.18585205078125 540.90570068359375 533.80767822265625
422.154937744140625 427.1170654296875 433.79486083984375 442.866729736328125 457.279510498046875 471.432342529296875 484.980560302734375 503.316375732421875 520.35089111328125 533.23077392578125 541.32147216796875 548.85107421875 558.21563720703125 561.8270263671875 561.853515625 560.4271240234375 557.4473876953125 552.057861328125 546.98675537109375 545.5516357421875 547.048095703125 548.80181884765625 554.10357666015625 562.5989990234375 572.9307861328125 584.7779541015625 595.4805908203125 602.52020263671875 608.57952880859375 612.8140869140625 617.8988037109375 618.0614013671875 618.40771484375 620.71356201171875 620.7066650390625 618.1070556640625 614.76470947265625 611.88201904296875 610.65240478515625 607.12066650390625 602.37591552734375 593.76849365234375 585.1456298828125 579.4556884765625 579.0302734375 583.88348388671875 591.5802001953125 599.43896484375 604.58172607421875 608.69537353515625 614.97357177734375 621.072509765625 623.8973388671875 625.43048095703125 625.7176513671875 626.20703125 629.6859130859375 631.09405517578125 631.03228759765625 630.0965576171875 627.14801025390625 621.02545166015625 614.04962158203125 603.29742431640625 588.42376708984375 573.65264892578125 560.40228271484375 548.46844482421875 540.94049072265625 533.55596923828125
409.8475341796875 415.47662353515625 422.29217529296875 432.235992431640625 446.555633544921875 466.82574462890625 482.519012451171875 497.547454833984375 515.2703857421875 527.395263671875 534.00860595703125 540.5465087890625 548.623779296875 554.59857177734375 554.9425048828125 552.45526123046875 547.83404541015625 541.2742919921875 538.36187744140625 539.1243896484375 542.877197265625 549.03167724609375 556.9044189453125 565.77996826171875 577.20672607421875 589.96826171875 603.33111572265625 612.357421875 616.0501708984375 617.067138671875 617.841552734375 617.81787109375 617.65240478515625 617.71331787109375 615.92620849609375 612.75103759765625 608.9444580078125 604.96014404296875 602.44281005859375 598.26568603515625 592.2694091796875 584.43743896484375 579.73590087890625 576.61981201171875 577.474365234375 583.14678955078125 593.0838623046875 603.34356689453125 608.307861328125 612.154052734375 621.04388427734375 628.23687744140625 630.01690673828125 630.14013671875 629.33697509765625 629.94287109375 633.5772705078125 634.5238037109375 631.8404541015625 628.94342041015625 625.72540283203125 621.0137939453125 613.552978515625 601.90814208984375 588.61260986328125 574.94488525390625 562.193359375 548.6751708984375 539.8515625 528.88226318359375
399.128692626953125 405.45147705078125 413.5081787109375 424.53533935546875 438.965576171875 456.238250732421875 474.248199462890625 490.0751953125 502.45245361328125 513.3804931640625 523.2020263671875 532.63861083984375 540.86895751953125 544.34246826171875 543.42816162109375 540.6483154296875 536.39215087890625 533.690673828125 533.48779296875 537.515380859375 544.76361083984375 553.2708740234375 562.31207275390625 572.30316162109375 584.04376220703125 596.448486328125 608.56085205078125 617.253173828125 620.5753173828125 618.57177734375 617.30169677734375 616.09075927734375 614.4351806640625 611.08758544921875 606.45513916015625 602.384033203125 597.90948486328125 595.69580078125 592.7945556640625 587.55279541015625 581.15557861328125 575.4434814453125 573.4102783203125 573.941162109375 576.25 583.57037353515625 595.4378662109375 606.3690185546875 610.41754150390625 615.483642578125 625.04443359375 631.380859375 632.4267578125 632.8460693359375 633.3011474609375 634.68170166015625 636.2540283203125 635.24420166015625 632.7896728515625 628.64642333984375 624.0830078125 620.82763671875 616.3624267578125 605.59136962890625 591.28521728515625 577.1385498046875 562.82574462890625 546.6861572265625 535.8193359375 520.39959716796875
391.10516357421875 396.759124755859375 403.790008544921875 414.968048095703125 427.620391845703125 441.81170654296875 457.435333251953125 472.21112060546875 486.766357421875 497.44940185546875 506.698822021484375 518.4627685546875 525.580322265625 529.679443359375 529.94244384765625 528.57366943359375 527.70751953125 530.01409912109375 534.39678955078125 538.83367919921875 545.00128173828125 554.6640625 564.931396484375 578.1500244140625 592.56134033203125 604.0458984375 613.02490234375 618.9239501953125 619.9693603515625 615.7327880859375 612.225341796875 609.791748046875 606.766845703125 600.6068115234375 593.77081298828125 588.92578125 586.571044921875 585.5279541015625 583.423095703125 578.79840087890625 571.685546875 566.82391357421875 568.7686767578125 574.36346435546875 580.26177978515625 589.9761962890625 602.0711669921875 610.12762451171875 614.25848388671875 620.55291748046875 627.72021484375 632.579833984375 633.80230712890625 634.54205322265625 635.74029541015625 636.0791015625 634.68792724609375 632.85809326171875 632.155517578125 626.171875 621.3076171875 619.46954345703125 617.5728759765625 607.80804443359375 592.7188720703125 575.98187255859375 554.64019775390625 537.06353759765625 525.87530517578125 507.006744384765625
387.080718994140625 390.927459716796875 395.950531005859375 404.365509033203125 415.692413330078125 427.72662353515625 441.3568115234375 456.18548583984375 469.875518798828125 481.526519775390625 492.0421142578125 500.949005126953125 506.41351318359375 510.542694091796875 515.5933837890625 522.0548095703125 525.2288818359375 529.8173828125 534.381103515625 537.7122802734375 545.5264892578125 556.48712158203125 568.331787109375 585.26800537109375 598.85125732421875 609.3590087890625 616.2288818359375 618.42083740234375 615.71771240234375 608.55255126953125 602.9354248046875 599.6962890625 595.70599365234375 588.19964599609375 579.23101806640625 573.8900146484375 571.48443603515625 571.71734619140625 572.8211669921875 570.76800537109375 565.7891845703125 564.0635986328125 571.5330810546875 581.0068359375 589.676513671875 599.984130859375 611.0323486328125 617.17071533203125 622.5535888671875 628.3797607421875 632.29095458984375 635.69659423828125 636.1177978515625 635.48614501953125 635.38525390625 634.020263671875 631.7320556640625 631.02166748046875 628.93408203125 622.4866943359375 619.24871826171875 618.14544677734375 614.98675537109375 604.45361328125 586.82379150390625 565.8121337890625 540.93255615234375 523.61669921875 510.31988525390625 491.178955078125
387.329986572265625 389.87005615234375 393.156951904296875 399.128143310546875 408.028106689453125 417.71820068359375 428.8521728515625 440.343017578125 453.64105224609375 467.2655029296875 479.029632568359375 486.96044921875 491.364654541015625 496.0250244140625 506.756011962890625 518.0587158203125 523.000732421875 530.07489013671875 534.85443115234375 538.65576171875 547.92620849609375 559.9842529296875 572.90496826171875 585.95428466796875 597.46356201171875 611.2166748046875 617.733642578125 617.37860107421875 610.47052001953125 600.595703125 593.30657958984375 586.644287109375 582.15985107421875 574.467529296875 564.79052734375 556.7255859375 551.80706787109375 554.22369384765625 562.1094970703125 565.42010498046875 563.00103759765625 564.89166259765625 574.908447265625 587.2158203125 597.5697021484375 610.14959716796875 620.584716796875 626.29095458984375 631.2750244140625 632.9754638671875 636.47003173828125 640.10009765625 639.298583984375 635.89044189453125 633.5318603515625 631.45965576171875 629.8839111328125 629.73016357421875 626.1864013671875 621.00042724609375 619.898681640625 617.01385498046875 611.2244873046875 599.18304443359375 578.92205810546875 556.3824462890625 533.9112548828125 514.74993896484375 496.302947998046875 477.603790283203125
395.90130615234375 399.14495849609375 400.534149169921875 403.723114013671875 409.0552978515625 415.511749267578125 422.829925537109375 431.791351318359375 443.74212646484375 457.029388427734375 469.462493896484375 477.677276611328125 481.117401123046875 487.6656494140625 501.127288818359375 515.4595947265625 523.7762451171875 531.5045166015625 536.94525146484375 543.766357421875 553.81103515625 566.96929931640625 581.25299072265625 590.89263916015625 602.6568603515625 613.78607177734375 617.57196044921875 611.7503662109375 601.82275390625 593.4813232421875 581.786865234375 573.00592041015625 568.3448486328125 559.23736572265625 550.2750244140625 540.47705078125 531.4012451171875 534.58184814453125 549.37176513671875 557.40740966796875 560.3504638671875 566.58856201171875 581.0836181640625 594.11273193359375 605.96295166015625 617.346923828125 626.30694580078125 632.7696533203125 635.2708740234375 635.915771484375 639.98553466796875 644.160888671875 642.28125 636.85821533203125 632.15118408203125 630.39312744140625 629.55963134765625 628.895751953125 625.58856201171875 622.18450927734375 621.6943359375 615.40557861328125 606.40509033203125 593.8243408203125 574.888916015625 552.73974609375 531.8453369140625 507.93011474609375 485.19091796875 464.604583740234375
413.88458251953125 418.101806640625 421.796600341796875 422.283416748046875 422.64605712890625 426.764892578125 429.1585693359375 433.1494140625 441.2874755859375 451.20025634765625 462.103057861328125 471.582489013671875 479.52313232421875 488.597991943359375 502.4835205078125 516.64599609375 525.795654296875 531.62872314453125 537.8521728515625 546.85107421875 559.4239501953125 571.70391845703125 581.48529052734375 592.61444091796875 606.45428466796875 615.9130859375 614.02862548828125 606.1065673828125 597.2366943359375 586.32373046875 571.5850830078125 558.498779296875 552.9566650390625 544.4549560546875 535.276123046875 524.71539306640625 513.92877197265625 515.41375732421875 527.854248046875 543.7032470703125 557.0938720703125 572.8485107421875 587.63372802734375 602.77764892578125 614.72601318359375 621.153076171875 627.67706298828125 633.2176513671875 636.04132080078125 637.85345458984375 642.155517578125 642.98663330078125 640.4677734375 635.85479736328125 632.02117919921875 630.269287109375 629.75897216796875 629.63885498046875 626.37322998046875 624.98895263671875 623.44384765625 615.86279296875 604.54876708984375 590.34112548828125 572.5555419921875 550.302001953125 528.7652587890625 503.19976806640625 479.18658447265625 455.4234619140625
438.378662109375 443.108856201171875 446.251190185546875 447.636199951171875 446.5574951171875 447.463165283203125 449.167633056640625 449.1739501953125 453.598052978515625 460.499786376953125 469.719573974609375 481.480682373046875 493.41156005859375 502.723602294921875 511.947296142578125 520.53497314453125 526.7269287109375 531.56585693359375 538.56640625 549.228271484375 560.88818359375 571.3863525390625 579.765625 589.0745849609375 604.4146728515625 612.971923828125 609.899658203125 602.15997314453125 592.864501953125 581.8409423828125 565.06024169921875 548.49847412109375 537.73699951171875 525.4393310546875 513.99920654296875 503.02386474609375 495.92352294921875 496.93682861328125 507.538787841796875 526.1981201171875 552.72607421875 573.67529296875 586.09814453125 600.20513916015625 609.46112060546875 616.53759765625 624.5086669921875 629.18792724609375 631.95062255859375 634.76947021484375 636.4609375 632.97540283203125 627.60302734375 626.38232421875 627.41754150390625 627.3349609375 625.317626953125 625.0836181640625 623.72637939453125 621.73223876953125 622.6427001953125 615.97845458984375 604.8741455078125 588.91546630859375 571.19732666015625 549.82635498046875 527.55950927734375 503.530364990234375 481.8658447265625 460.45123291015625
453.88031005859375 457.905517578125 459.640899658203125 461.157440185546875 461.04046630859375 460.88909912109375 463.0107421875 465.1571044921875 468.932525634765625 474.009857177734375 484.259063720703125 496.934844970703125 506.323760986328125 512.80450439453125 518.9434814453125 524.48583984375 530.007080078125 534.50152587890625 540.39215087890625 549.034423828125 558.71527099609375 570.38836669921875 581.55133056640625 591.78887939453125 602.69293212890625 608.2254638671875 605.44476318359375 597.17669677734375 586.2335205078125 575.17724609375 559.841064453125 542.23602294921875 523.55291748046875 498.94580078125 484.99810791015625 479.8797607421875 480.483184814453125 483.17767333984375 493.683990478515625 516.383544921875 544.00836181640625 565.22015380859375 576.66845703125 590.80902099609375 602.0567626953125 608.55078125 615.2314453125 617.474365234375 619.32977294921875 621.6588134765625 621.38690185546875 614.39031982421875 608.2730712890625 608.1590576171875 613.94610595703125 615.2056884765625 610.6568603515625 610.382080078125 610.6060791015625 609.84515380859375 613.7803955078125 609.91461181640625 599.2178955078125 584.7413330078125 567.10711669921875 545.63946533203125 522.96356201171875 501.455169677734375 486.58758544921875 471.046539306640625
458.320648193359375 460.95318603515625 461.63409423828125 462.4344482421875 463.221771240234375 463.37127685546875 465.528717041015625 470.459136962890625 475.23687744140625 480.658843994140625 491.0174560546875 502.095489501953125 510.23272705078125 517.346435546875 527.05767822265625 534.94580078125 540.1815185546875 545.130126953125 549.03564453125 554.94342041015625 563.489013671875 574.55224609375 587.92529296875 597.29766845703125 603.0908203125 605.6490478515625 601.01953125 592.239013671875 582.30517578125 570.1693115234375 552.89129638671875 532.38397216796875 514.22589111328125 490.83251953125 471.667022705078125 467.242156982421875 469.863067626953125 475.2547607421875 486.914276123046875 507.4742431640625 529.837158203125 547.87530517578125 564.59942626953125 580.7291259765625 596.05096435546875 603.35516357421875 605.03131103515625 603.24932861328125 600.67388916015625 601.633544921875 599.30511474609375 596.45068359375 592.91766357421875 591.8519287109375 593.854736328125 592.77490234375 589.44091796875 587.180908203125 586.45928955078125 593.33770751953125 600.7484130859375 599.61456298828125 589.713623046875 575.32867431640625 554.94329833984375 532.2945556640625 509.707916259765625 492.665771484375 483.42218017578125 469.500335693359375
454.178497314453125 455.8145751953125 455.071136474609375 456.0068359375 457.414886474609375 456.583404541015625 457.827850341796875 464.074188232421875 470.569854736328125 476.770172119140625 485.626251220703125 495.921844482421875 505.587554931640625 514.98291015625 525.72564697265625 537.246337890625 546.280029296875 553.97808837890625 560.7562255859375 568.048828125 576.0294189453125 585.54962158203125 597.4908447265625 604.9212646484375 607.69720458984375 604.20965576171875 598.03106689453125 588.87261962890625 578.53314208984375 564.74908447265625 546.27587890625 526.39306640625 504.551116943359375 481.33197021484375 466.215423583984375 458.824737548828125 458.85906982421875 465.4403076171875 479.77276611328125 498.85687255859375 513.9571533203125 530.29248046875 549.1697998046875 567.22137451171875 582.205078125 589.43798828125 588.3941650390625 584.19293212890625 579.2369384765625 576.3594970703125 575.64471435546875 576.4273681640625 574.21240234375 570.58245849609375 566.48046875 566.29071044921875 566.12109375 563.204345703125 566.60595703125 579.08184814453125 591.47894287109375 590.21197509765625 581.6793212890625 562.58154296875 538.67279052734375 516.79595947265625 496.63531494140625 482.43670654296875 470.91436767578125 455.80645751953125
442.48748779296875 443.1942138671875 442.16156005859375 442.902191162109375 444.119659423828125 443.50079345703125 444.8433837890625 450.969635009765625 458.20318603515625 465.014556884765625 474.287506103515625 485.274749755859375 495.513397216796875 505.351531982421875 515.89923095703125 531.04351806640625 543.9609375 554.98883056640625 567.57672119140625 577.6123046875 587.94952392578125 599.3345947265625 609.377685546875 613.19378662109375 611.248291015625 606.42279052734375 598.00872802734375 583.8585205078125 571.691162109375 560.75830078125 544.1610107421875 520.91162109375 496.532318115234375 477.934234619140625 458.390411376953125 445.376129150390625 443.6463623046875 450.686737060546875 466.69647216796875 485.550201416015625 500.87921142578125 516.483154296875 534.89691162109375 551.7777099609375 567.2357177734375 571.6064453125 568.27081298828125 564.56793212890625 559.63916015625 552.766357421875 549.6026611328125 547.6373291015625 544.28668212890625 543.00201416015625 541.60894775390625 540.25433349609375 541.77752685546875 546.369873046875 554.334228515625 566.931640625 578.43255615234375 582.38323974609375 574.8092041015625 552.5159912109375 528.83099365234375 507.46038818359375 488.79302978515625 472.36224365234375 455.734222412109375 439.525177001953125
426.058135986328125 426.91534423828125 425.528778076171875 426.253082275390625 427.918243408203125 429.046966552734375 431.52520751953125 436.132293701171875 443.194244384765625 451.35394287109375 461.111602783203125 471.74371337890625 481.893035888671875 490.628875732421875 501.27276611328125 515.04058837890625 531.34869384765625 547.06939697265625 563.33447265625 578.4915771484375 593.53497314453125 608.10296630859375 619.945068359375 618.88616943359375 614.35821533203125 608.83392333984375 596.97021484375 580.742919921875 567.90606689453125 556.00958251953125 539.5281982421875 518.2481689453125 496.7821044921875 472.47174072265625 447.793548583984375 436.848480224609375 432.974212646484375 437.883575439453125 451.1484375 468.11456298828125 485.434814453125 505.64178466796875 521.60101318359375 534.89300537109375 549.09393310546875 553.76971435546875 551.54998779296875 544.8463134765625 536.8118896484375 527.78729248046875 520.48779296875 518.959716796875 520.20574951171875 522.81982421875 523.26416015625 522.3504638671875 523.09320068359375 528.1597900390625 541.79595947265625 551.73974609375 560.5550537109375 567.915771484375 561.3370361328125 545.34014892578125 525.8079833984375 506.542327880859375 486.896270751953125 466.523681640625 446.22320556640625 429.58441162109375
405.34698486328125 407.134918212890625 406.536773681640625 407.185333251953125 409.437255859375 413.158111572265625 417.03533935546875 421.46893310546875 429.76336669921875 439.13177490234375 446.331390380859375 455.171600341796875 465.06134033203125 474.427703857421875 483.93408203125 495.544647216796875 515.0303955078125 534.57305908203125 553.6097412109375 573.16033935546875 590.798095703125 607.46624755859375 618.04254150390625 619.1263427734375 613.5709228515625 606.2740478515625 593.51171875 576.36834716796875 561.92047119140625 546.1202392578125 531.33209228515625 514.08343505859375 492.141571044921875 465.561920166015625 440.453765869140625 427.932861328125 422.833282470703125 426.094818115234375 436.607696533203125 451.025848388671875 469.180328369140625 489.65179443359375 512.69647216796875 520.81884765625 532.76300048828125 542.7828369140625 538.33831787109375 526.51947021484375 513.42730712890625 502.41510009765625 495.828948974609375 495.7332763671875 496.850738525390625 498.9744873046875 500.535614013671875 502.555572509765625 503.293731689453125 510.271331787109375 524.53485107421875 535.9241943359375 545.4986572265625 549.47589111328125 544.19110107421875 534.13702392578125 522.03546142578125 506.861602783203125 487.944549560546875 469.22314453125 448.42584228515625 428.40704345703125
383.3336181640625 384.7528076171875 386.508270263671875 388.044403076171875 388.607757568359375 391.945526123046875 399.299591064453125 406.0975341796875 414.5396728515625 425.2498779296875 432.0853271484375 438.685699462890625 449.140350341796875 460.55853271484375 469.3807373046875 480.078369140625 496.421234130859375 518.96820068359375 542.063720703125 564.4271240234375 584.04742431640625 601.30975341796875 613.34625244140625 616.611328125 610.28509521484375 600.9886474609375 587.29815673828125 566.70306396484375 550.99273681640625 533.957763671875 518.36834716796875 502.352142333984375 484.17596435546875 460.08599853515625 437.090484619140625 422.938079833984375 414.45489501953125 413.983123779296875 424.8125 441.398468017578125 457.13580322265625 479.03131103515625 489.911773681640625 499.1832275390625 514.77459716796875 524.288330078125 521.453857421875 509.089508056640625 494.6014404296875 484.20263671875 477.5819091796875 474.524322509765625 474.234039306640625 474.86395263671875 476.499847412109375 482.06036376953125 489.167388916015625 501.222198486328125 517.5400390625 527.3392333984375 536.617919921875 536.3487548828125 527.95391845703125 517.5135498046875 505.617706298828125 495.5791015625 485.678680419921875 471.94561767578125 452.036651611328125 431.58428955078125
363.514373779296875 364.82476806640625 368.3702392578125 371.6419677734375 369.84185791015625 371.438385009765625 380.742279052734375 390.672821044921875 398.822418212890625 409.981842041015625 419.087005615234375 426.3250732421875 436.30047607421875 447.1146240234375 457.359771728515625 468.82891845703125 483.411224365234375 501.620819091796875 524.88739013671875 550.6488037109375 574.20867919921875 592.4632568359375 604.55078125 609.14788818359375 604.26446533203125 593.87200927734375 575.27056884765625 554.3370361328125 536.65093994140625 518.29815673828125 501.36614990234375 487.483184814453125 473.37750244140625 454.514862060546875 434.321136474609375 419.928436279296875 410.100799560546875 407.882568359375 414.83984375 426.15386962890625 437.976898193359375 449.4605712890625 463.978424072265625 484.083648681640625 499.00787353515625 510.4693603515625 510.372161865234375 499.1785888671875 486.445343017578125 472.7164306640625 462.472259521484375 455.819793701171875 453.840667724609375 455.37841796875 459.485504150390625 468.081817626953125 483.355377197265625 501.441009521484375 516.869873046875 530.04522705078125 531.02783203125 521.70635986328125 512.08770751953125 498.034576416015625 485.56976318359375 480.425994873046875 475.450286865234375 464.987884521484375 449.235595703125 432.00689697265625
346.71807861328125 349.136566162109375 353.3502197265625 356.527313232421875 356.327239990234375 359.574127197265625 369.1064453125 380.17889404296875 389.01080322265625 398.3963623046875 409.45172119140625 418.62799072265625 426.701568603515625 436.728790283203125 448.41021728515625 461.972412109375 476.75823974609375 492.134490966796875 512.42864990234375 536.39862060546875 562.87933349609375 583.711669921875 595.359130859375 600.21966552734375 597.3653564453125 585.919921875 562.103759765625 541.8580322265625 519.9315185546875 497.41815185546875 481.154815673828125 471.1466064453125 459.34417724609375 444.81744384765625 428.62200927734375 415.07501220703125 403.757049560546875 399.69439697265625 403.23699951171875 409.208160400390625 419.013824462890625 432.960235595703125 446.372314453125 463.8145751953125 484.9239501953125 496.9708251953125 493.944915771484375 482.23065185546875 469.043914794921875 457.488067626953125 446.238800048828125 434.2779541015625 434.649139404296875 437.613494873046875 444.661102294921875 456.81585693359375 475.14208984375 493.13018798828125 513.2376708984375 525.71612548828125 516.268310546875 507.66217041015625 494.538665771484375 479.5596923828125 468.18853759765625 464.10650634765625 460.674957275390625 453.8857421875 444.556243896484375 430.36114501953125
333.1875 336.58685302734375 340.15814208984375 344.05352783203125 349.37750244140625 356.162750244140625 366.260498046875 376.397247314453125 384.235076904296875 392.489349365234375 404.6925048828125 416.830047607421875 428.238006591796875 439.0350341796875 449.860443115234375 461.0054931640625 474.8956298828125 488.8079833984375 506.915679931640625 530.25634765625 557.86761474609375 578.3734130859375 588.94256591796875 594.38421630859375 591.450927734375 578.77056884765625 551.5906982421875 533.333984375 507.4189453125 484.757659912109375 469.427886962890625 458.88201904296875 448.940216064453125 435.210174560546875 419.120941162109375 406.06793212890625 394.01861572265625 389.7745361328125 390.577972412109375 394.76885986328125 405.28424072265625 421.279296875 433.187164306640625 449.83001708984375 472.0283203125 479.31378173828125 477.48040771484375 465.81781005859375 450.776275634765625 438.83544921875 425.437286376953125 419.17578125 418.5013427734375 424.156829833984375 434.887908935546875 448.05999755859375 463.23553466796875 482.807403564453125 505.016143798828125 513.0357666015625 511.719268798828125 498.41046142578125 478.05377197265625 461.444854736328125 451.3720703125 445.9176025390625 440.973724365234375 436.86199951171875 433.17230224609375 420.790252685546875
322.6953125 327.267852783203125 332.0982666015625 338.87017822265625 349.178253173828125 361.141937255859375 371.689666748046875 379.1923828125 385.460906982421875 393.14849853515625 404.42926025390625 418.869476318359375 435.07427978515625 448.90643310546875 459.83868408203125 469.075592041015625 479.032501220703125 492.056793212890625 509.851287841796875 532.82708740234375 558.1092529296875 576.72344970703125 586.9427490234375 592.934814453125 590.281494140625 575.15447998046875 553.49169921875 534.55364990234375 507.818389892578125 485.41461181640625 469.8187255859375 455.201507568359375 441.1229248046875 425.951751708984375 410.91827392578125 397.553680419921875 387.33624267578125 382.49517822265625 378.699127197265625 380.829559326171875 390.745391845703125 405.54156494140625 420.64764404296875 435.3404541015625 449.87213134765625 457.504974365234375 455.380950927734375 447.19805908203125 437.2398681640625 426.4229736328125 415.2225341796875 408.654571533203125 409.006866455078125 416.9984130859375 432.98443603515625 449.969207763671875 462.01708984375 479.9044189453125 497.53497314453125 508.290191650390625 506.8321533203125 484.50909423828125 464.928680419921875 449.849609375 436.433990478515625 426.36273193359375 420.107177734375 417.916534423828125 415.006439208984375 406.324951171875
318.992095947265625 326.030517578125 333.70703125 342.389068603515625 354.902740478515625 370.944671630859375 382.389862060546875 387.8333740234375 393.41278076171875 399.346038818359375 407.608856201171875 421.302337646484375 439.597991943359375 456.646209716796875 468.826263427734375 479.3350830078125 491.824951171875 507.780029296875 523.58648681640625 543.351318359375 562.081787109375 578.66864013671875 588.83880615234375 592.38641357421875 587.33331298828125 575.3809814453125 562.335205078125 544.6396484375 518.86566162109375 496.854644775390625 479.328094482421875 462.0499267578125 442.48907470703125 426.679290771484375 410.781524658203125 396.249176025390625 383.9769287109375 376.4058837890625 372.5543212890625 374.33453369140625 380.22711181640625 393.0037841796875 407.683837890625 416.66497802734375 426.9815673828125 437.42657470703125 438.435882568359375 433.73443603515625 426.299896240234375 415.372161865234375 403.70330810546875 400.5714111328125 403.174468994140625 414.0655517578125 434.673919677734375 448.734344482421875 461.23846435546875 475.6011962890625 490.34075927734375 503.445281982421875 499.10894775390625 482.45684814453125 462.495513916015625 444.044830322265625 426.413482666015625 412.493194580078125 405.288299560546875 401.67181396484375 398.0279541015625 391.745025634765625
322.016448974609375 332.976531982421875 342.6632080078125 353.301177978515625 366.42706298828125 382.059539794921875 393.371673583984375 400.2576904296875 404.965789794921875 409.0230712890625 414.481658935546875 426.2257080078125 444.53533935546875 460.52081298828125 473.116119384765625 487.232940673828125 505.3275146484375 525.13519287109375 540.8367919921875 556.3111572265625 570.90966796875 583.724853515625 589.86749267578125 586.61749267578125 577.31097412109375 568.42547607421875 562.594482421875 548.97747802734375 528.5213623046875 509.24090576171875 490.38092041015625 472.6710205078125 451.245147705078125 433.230133056640625 414.353668212890625 396.42333984375 381.855224609375 371.0408935546875 367.2957763671875 368.9649658203125 373.088470458984375 383.297210693359375 394.39642333984375 403.37860107421875 410.041778564453125 417.780670166015625 421.71893310546875 420.221099853515625 412.634857177734375 399.013275146484375 393.13714599609375 392.62017822265625 394.525360107421875 406.1202392578125 427.731170654296875 442.907440185546875 454.267974853515625 469.8040771484375 488.662567138671875 496.146759033203125 491.38519287109375 476.084075927734375 457.916534423828125 435.343994140625 416.398284912109375 402.2183837890625 393.834625244140625 389.0047607421875 384.0889892578125 379.640472412109375
325.974853515625 340.241912841796875 352.701324462890625 366.573883056640625 381.15972900390625 396.388092041015625 409.05645751953125 417.191741943359375 420.822662353515625 422.236602783203125 424.655487060546875 432.876800537109375 446.8675537109375 459.8311767578125 473.829559326171875 492.2607421875 512.7435302734375 536.1700439453125 552.61297607421875 565.9869384765625 579.8172607421875 587.0728759765625 585.85650634765625 574.90802001953125 562.8062744140625 554.3489990234375 552.79718017578125 544.74957275390625 532.076904296875 516.53973388671875 497.410675048828125 478.39678955078125 457.572418212890625 436.772216796875 417.23089599609375 398.408477783203125 382.372100830078125 369.89862060546875 362.0576171875 360.400909423828125 364.74127197265625 373.930328369140625 383.788787841796875 390.846649169921875 397.267669677734375 402.44500732421875 404.46343994140625 401.9423828125 392.883453369140625 385.345733642578125 384.019012451171875 383.9180908203125 386.2210693359375 393.5025634765625 410.8153076171875 433.178436279296875 448.26971435546875 465.318023681640625 480.46142578125 486.3662109375 480.97882080078125 463.73431396484375 444.425537109375 425.6849365234375 411.940673828125 399.23876953125 388.750457763671875 381.3641357421875 373.960052490234375 370.473968505859375
328.83074951171875 343.990814208984375 360.0400390625 376.166046142578125 391.863494873046875 408.201171875 423.509613037109375 434.30322265625 439.568511962890625 439.33966064453125 437.158111572265625 441.0804443359375 449.56109619140625 460.01763916015625 474.96197509765625 494.601348876953125 518.9962158203125 545.1605224609375 559.68597412109375 572.3538818359375 582.675048828125 582.93463134765625 574.684814453125 558.4771728515625 544.7515869140625 536.60125732421875 536.14190673828125 535.11126708984375 530.08465576171875 518.53741455078125 499.3990478515625 478.278717041015625 456.37847900390625 434.836700439453125 417.496551513671875 399.964599609375 383.24310302734375 371.7320556640625 360.9326171875 354.620697021484375 357.61810302734375 366.99615478515625 376.34320068359375 384.090087890625 389.098785400390625 391.952545166015625 390.939666748046875 385.93218994140625 379.248931884765625 375.15301513671875 374.36083984375 375.77728271484375 381.2156982421875 392.23193359375 409.735748291015625 427.332427978515625 444.110748291015625 458.791351318359375 469.569000244140625 476.9229736328125 475.044097900390625 458.41973876953125 440.60888671875 425.049468994140625 412.7012939453125 399.26519775390625 385.962982177734375 378.3927001953125 371.14166259765625 364.81396484375
325.282867431640625 343.326446533203125 363.172882080078125 381.37249755859375 399.34112548828125 417.68670654296875 434.102569580078125 449.04681396484375 459.68792724609375 460.11163330078125 457.324798583984375 458.449462890625 461.71343994140625 468.302703857421875 481.1212158203125 499.337677001953125 524.83721923828125 549.89996337890625 563.133056640625 574.856201171875 578.09722900390625 570.40899658203125 555.91058349609375 538.18426513671875 524.81689453125 517.130615234375 516.8223876953125 521.25885009765625 521.97857666015625 514.12725830078125 496.98828125 474.542938232421875 453.977996826171875 434.6331787109375 416.9156494140625 398.78857421875 383.6937255859375 373.003997802734375 361.757415771484375 354.0345458984375 353.544158935546875 359.562469482421875 368.594879150390625 376.776153564453125 381.14215087890625 382.0347900390625 380.162078857421875 375.600067138671875 370.34844970703125 367.625732421875 366.502532958984375 369.331512451171875 377.12255859375 389.6015625 403.474029541015625 418.625701904296875 436.75885009765625 453.31512451171875 462.47149658203125 468.281951904296875 467.3878173828125 452.793304443359375 434.1771240234375 419.645233154296875 408.6458740234375 397.791351318359375 386.400146484375 377.125335693359375 368.147430419921875 359.209747314453125
320.60479736328125 337.3741455078125 359.205352783203125 379.781341552734375 398.64642333984375 416.97686767578125 433.29718017578125 451.05718994140625 466.755859375 475.597564697265625 480.130218505859375 482.05438232421875 482.93365478515625 486.660125732421875 495.761199951171875 509.9791259765625 530.33685302734375 550.6080322265625 563.00604248046875 572.0838623046875 569.29998779296875 555.204345703125 536.29034423828125 519.19305419921875 504.912933349609375 498.093902587890625 500.497100830078125 507.018798828125 508.489105224609375 501.67486572265625 489.787994384765625 472.631195068359375 454.851959228515625 435.695648193359375 417.55743408203125 398.777557373046875 383.590484619140625 372.484771728515625 362.144866943359375 353.664093017578125 348.6787109375 350.705108642578125 357.471588134765625 365.928802490234375 371.04119873046875 371.493560791015625 369.8255615234375 366.010345458984375 361.374053955078125 360.696441650390625 362.7855224609375 366.690460205078125 375.414794921875 387.409332275390625 400.114471435546875 412.19891357421875 426.69378662109375 442.5828857421875 453.43975830078125 458.76080322265625 457.902801513671875 444.421295166015625 425.0455322265625 408.37408447265625 398.027313232421875 389.11444091796875 380.271270751953125 370.77593994140625 360.114166259765625 352.3614501953125
328.486297607421875 337.6566162109375 353.186676025390625 373.564483642578125 391.26422119140625 408.5535888671875 425.1357421875 443.654815673828125 465.402496337890625 481.909637451171875 495.8663330078125 502.31024169921875 505.751708984375 510.94720458984375 519.62347412109375 529.53082275390625 542.55621337890625 555.51556396484375 564.09228515625 566.68475341796875 558.01763916015625 540.71112060546875 520.53680419921875 503.292694091796875 486.30572509765625 479.085296630859375 483.767486572265625 490.103607177734375 488.545623779296875 483.70849609375 479.62603759765625 469.30780029296875 453.575347900390625 436.0513916015625 418.78521728515625 396.58233642578125 380.904876708984375 371.079742431640625 362.415313720703125 353.3775634765625 344.81964111328125 341.313629150390625 343.918548583984375 352.03338623046875 358.9716796875 360.237884521484375 359.21551513671875 355.57940673828125 353.453369140625 355.871826171875 358.457794189453125 364.924224853515625 374.156982421875 385.041351318359375 395.60089111328125 404.429351806640625 417.520599365234375 431.86053466796875 441.58013916015625 449.19635009765625 445.270355224609375 432.400390625 415.617950439453125 403.459136962890625 393.17999267578125 383.8809814453125 375.080047607421875 366.66583251953125 357.0963134765625 347.04364013671875
342.646240234375 346.141357421875 353.36517333984375 366.938232421875 382.787994384765625 398.882965087890625 416.793426513671875 437.55615234375 460.603790283203125 483.073272705078125 502.863128662109375 517.5054931640625 524.76495361328125 532.66546630859375 543.85498046875 554.27886962890625 560.8892822265625 564.90032958984375 565.02301025390625 559.53826904296875 543.94635009765625 525.18798828125 505.977996826171875 488.434967041015625 470.404510498046875 459.721771240234375 461.395172119140625 466.7908935546875 466.76641845703125 467.4703369140625 468.13104248046875 461.481597900390625 449.581329345703125 435.095428466796875 417.508087158203125 393.418304443359375 378.02850341796875 368.935302734375 361.35699462890625 353.498077392578125 343.1922607421875 334.474212646484375 333.172149658203125 338.734466552734375 343.613983154296875 346.1351318359375 345.69293212890625 343.026580810546875 345.69488525390625 351.452667236328125 357.314666748046875 365.255615234375 373.66375732421875 380.710052490234375 387.23065185546875 395.1473388671875 408.169342041015625 421.897064208984375 433.11273193359375 438.810089111328125 435.028717041015625 422.33734130859375 411.949676513671875 402.900115966796875 392.321990966796875 381.369354248046875 374.67071533203125 366.762603759765625 355.011749267578125 341.82464599609375
352.9722900390625 353.51348876953125 354.971221923828125 362.14208984375 375.12664794921875 390.010284423828125 410.039306640625 430.371795654296875 453.7388916015625 478.84942626953125 501.09002685546875 521.92608642578125 538.14166259765625 550.76556396484375 561.53179931640625 576.127197265625 576.08978271484375 570.667724609375 563.03167724609375 547.8563232421875 528.29779052734375 508.219573974609375 490.281829833984375 474.129150390625 457.00970458984375 442.289306640625 437.56878662109375 443.380035400390625 450.37823486328125 454.585906982421875 454.9971923828125 451.18878173828125 443.6121826171875 429.385650634765625 409.188507080078125 389.3240966796875 375.99554443359375 365.717132568359375 357.368377685546875 350.5936279296875 339.929412841796875 329.00506591796875 324.203857421875 325.67974853515625 328.37109375 331.185455322265625 331.104644775390625 329.86456298828125 335.02362060546875 344.303619384765625 354.63201904296875 364.48199462890625 370.67822265625 376.55096435546875 382.45330810546875 390.66204833984375 402.150360107421875 414.065032958984375 423.084686279296875 427.26129150390625 424.99322509765625 416.797210693359375 407.450958251953125 398.68603515625 387.337249755859375 378.954437255859375 372.346893310546875 362.191253662109375 348.656494140625 336.782440185546875
364.052215576171875 364.9888916015625 363.467193603515625 365.615631103515625 373.170562744140625 384.25482177734375 404.469146728515625 426.049530029296875 448.351348876953125 470.44659423828125 491.94049072265625 515.33892822265625 538.62884521484375 555.4287109375 567.58880615234375 581.43475341796875 581.77496337890625 574.03155517578125 557.5224609375 533.2384033203125 511.94781494140625 491.068817138671875 474.590911865234375 460.227203369140625 445.08197021484375 430.1683349609375 419.98699951171875 424.863616943359375 434.278411865234375 438.43603515625 438.131011962890625 436.983367919921875 431.548187255859375 416.957977294921875 397.698638916015625 383.820831298828125 374.085693359375 363.091278076171875 353.776092529296875 346.41070556640625 334.872894287109375 322.191375732421875 315.442962646484375 314.18951416015625 315.020355224609375 317.65032958984375 317.35345458984375 317.58367919921875 324.589263916015625 336.046234130859375 349.355682373046875 359.318389892578125 365.2281494140625 372.492584228515625 378.857452392578125 388.3321533203125 398.12109375 407.426971435546875 415.602996826171875 420.820709228515625 418.739471435546875 411.1671142578125 400.731689453125 391.118560791015625 381.9393310546875 372.76812744140625 361.655792236328125 349.738616943359375 340.47479248046875 331.6920166015625
378.392547607421875 380.29925537109375 378.0556640625 376.65423583984375 379.546356201171875 389.928924560546875 407.651702880859375 425.50897216796875 443.28741455078125 462.39337158203125 479.64361572265625 501.991851806640625 528.017822265625 549.68621826171875 560.90911865234375 579.03851318359375 583.50567626953125 574.04437255859375 550.3740234375 516.4852294921875 496.81671142578125 478.231597900390625 464.44390869140625 449.867218017578125 434.465240478515625 421.111663818359375 408.77984619140625 409.901519775390625 416.6568603515625 419.3968505859375 419.36492919921875 419.451568603515625 414.4573974609375 401.871429443359375 389.371429443359375 379.1617431640625 371.242645263671875 360.503997802734375 351.540679931640625 342.688018798828125 329.30010986328125 315.8673095703125 308.181304931640625 304.953338623046875 304.78094482421875 307.638092041015625 308.6348876953125 311.300445556640625 320.958953857421875 333.75616455078125 346.757537841796875 356.01483154296875 360.792510986328125 367.19482421875 374.799896240234375 384.2593994140625 394.502288818359375 403.69293212890625 412.771331787109375 417.3212890625 413.95318603515625 406.331390380859375 395.776763916015625 385.9290771484375 376.810516357421875 365.8502197265625 353.25628662109375 342.7591552734375 333.894500732421875 325.05743408203125
388.06842041015625 393.777740478515625 399.02960205078125 395.825531005859375 396.444091796875 402.595855712890625 410.050201416015625 421.420013427734375 438.6551513671875 459.345062255859375 473.731109619140625 492.623504638671875 519.29766845703125 537.61053466796875 555.631591796875 575.62310791015625 580.4501953125 572.78753662109375 546.74224853515625 505.89874267578125 484.93341064453125 469.277374267578125 457.428985595703125 441.0982666015625 426.2652587890625 411.6951904296875 398.859344482421875 398.213623046875 401.7950439453125 402.78399658203125 403.11553955078125 402.2789306640625 397.624298095703125 389.2947998046875 383.0830078125 376.190277099609375 368.670196533203125 359.065093994140625 348.250732421875 336.823455810546875 324.223876953125 311.567962646484375 302.903533935546875 298.6282958984375 297.67156982421875 299.904083251953125 303.9013671875 309.126434326171875 318.769317626953125 330.84375 343.00103759765625 352.474609375 356.856719970703125 362.6026611328125 370.458343505859375 380.866668701171875 388.99322509765625 398.39678955078125 407.901519775390625 411.80938720703125 407.1773681640625 399.989013671875 390.401031494140625 381.513427734375 372.88702392578125 358.947357177734375 346.4287109375 336.7508544921875 325.9588623046875 316.5438232421875
395.00262451171875 407.11199951171875 420.54644775390625 430.42694091796875 428.848785400390625 425.9503173828125 426.69781494140625 432.66375732421875 446.0899658203125 465.941131591796875 481.74853515625 496.8297119140625 520.41485595703125 535.9178466796875 550.680908203125 566.468017578125 570.69384765625 566.44500732421875 545.11962890625 507.86090087890625 484.7110595703125 466.969696044921875 451.631866455078125 434.020172119140625 419.96722412109375 404.9205322265625 392.083343505859375 386.674102783203125 385.270843505859375 386.878997802734375 387.861602783203125 386.524261474609375 383.5809326171875 380.315185546875 376.9801025390625 373.239227294921875 366.52978515625 357.32037353515625 344.30743408203125 331.8525390625 320.866302490234375 309.340576171875 299.978790283203125 294.079925537109375 292.308837890625 293.4044189453125 299.2745361328125 306.731719970703125 315.187591552734375 325.643707275390625 337.770416259765625 347.75244140625 355.022735595703125 361.746978759765625 367.84857177734375 376.300323486328125 384.099822998046875 393.89947509765625 402.459228515625 404.112762451171875 398.6300048828125 391.11932373046875 381.802215576171875 374.243927001953125 364.620269775390625 350.303192138671875 338.04852294921875 326.272857666015625 315.400360107421875 307.5018310546875
399.4012451171875 415.658416748046875 435.01519775390625 448.131256103515625 448.5963134765625 446.810455322265625 447.781494140625 450.565521240234375 458.1199951171875 472.284332275390625 488.415313720703125 503.56549072265625 520.3046875 536.99639892578125 551.67425537109375 559.883544921875 557.50494384765625 549.79669189453125 534.6968994140625 512.3287353515625 491.544830322265625 471.94537353515625 452.689239501953125 436.141143798828125 418.143310546875 401.610321044921875 388.63006591796875 375.25482177734375 370.81072998046875 372.018707275390625 373.848907470703125 373.235321044921875 372.72296142578125 372.560546875 370.271240234375 366.930694580078125 361.15692138671875 352.074432373046875 340.85955810546875 329.60858154296875 318.33111572265625 307.01751708984375 296.877532958984375 289.52093505859375 286.99078369140625 288.50250244140625 294.354339599609375 303.34881591796875 311.80657958984375 321.62738037109375 333.44805908203125 344.3128662109375 353.91851806640625 360.68426513671875 366.552032470703125 373.94842529296875 380.482391357421875 387.52081298828125 394.4696044921875 394.3521728515625 388.41375732421875 380.84320068359375 372.8878173828125 365.102081298828125 356.81451416015625 344.47137451171875 332.62188720703125 320.86492919921875 309.745330810546875 302.1318359375
401.051055908203125 424.91400146484375 442.655670166015625 454.60028076171875 462.60418701171875 466.836334228515625 468.94927978515625 470.8353271484375 476.120208740234375 484.574462890625 498.044525146484375 510.646240234375 528.56689453125 544.15435791015625 552.8546142578125 551.2503662109375 543.98846435546875 533.287109375 520.42047119140625 508.20550537109375 492.54193115234375 475.391815185546875 458.247711181640625 439.289794921875 419.6907958984375 400.986785888671875 385.27630615234375 370.853790283203125 362.83258056640625 361.879119873046875 362.273529052734375 361.87408447265625 362.200592041015625 362.39068603515625 359.869964599609375 355.476104736328125 351.14501953125 344.7479248046875 336.8387451171875 326.682891845703125 314.6099853515625 302.510467529296875 291.436614990234375 284.130615234375 281.695037841796875 283.950775146484375 289.35394287109375 298.775970458984375 308.466827392578125 318.579193115234375 329.77276611328125 339.98919677734375 349.236724853515625 357.8529052734375 364.124664306640625 370.965362548828125 376.3231201171875 380.8388671875 386.218658447265625 385.616790771484375 380.94073486328125 373.809814453125 365.964599609375 360.688568115234375 353.3817138671875 343.322601318359375 331.811370849609375 319.39581298828125 308.213165283203125 299.988372802734375
406.00732421875 427.535797119140625 445.683868408203125 463.801513671875 478.78125 488.358062744140625 493.868865966796875 497.35797119140625 497.815673828125 504.7532958984375 515.3221435546875 526.46490478515625 542.61810302734375 556.62579345703125 551.653076171875 538.14630126953125 527.37152099609375 513.3074951171875 501.37750244140625 495.96234130859375 486.965118408203125 473.01544189453125 456.25115966796875 437.493896484375 418.378662109375 400.46380615234375 383.794921875 368.968963623046875 359.9185791015625 355.226287841796875 351.69207763671875 350.6546630859375 350.35052490234375 349.519622802734375 346.205780029296875 341.7076416015625 338.834716796875 335.401519775390625 330.058197021484375 321.581787109375 309.87542724609375 297.162628173828125 285.66680908203125 277.9759521484375 275.801483154296875 278.072509765625 283.992431640625 293.980377197265625 303.89349365234375 312.775238037109375 322.226043701171875 333.847412109375 344.9581298828125 354.722137451171875 361.58441162109375 367.308807373046875 371.52618408203125 374.56500244140625 378.707122802734375 379.689178466796875 375.361724853515625 368.050811767578125 361.376953125 357.241546630859375 350.499542236328125 339.876312255859375 328.462615966796875 318.740142822265625 307.89471435546875 298.369140625
412.63262939453125 430.01910400390625 448.067901611328125 470.6822509765625 492.012237548828125 504.417205810546875 510.981292724609375 512.13873291015625 519.21075439453125 526.831787109375 532.763916015625 544.6439208984375 559.52691650390625 561.68365478515625 543.8212890625 521.11920166015625 505.416900634765625 487.87921142578125 477.326873779296875 474.547607421875 470.16876220703125 459.548858642578125 449.022216796875 435.295440673828125 416.698699951171875 399.112548828125 382.920989990234375 369.797943115234375 359.930755615234375 352.68756103515625 345.580535888671875 341.950531005859375 339.99658203125 336.9893798828125 332.676544189453125 328.09051513671875 325.61846923828125 323.556304931640625 319.4337158203125 313.24737548828125 304.09124755859375 293.390594482421875 282.60235595703125 272.409912109375 269.816986083984375 271.653228759765625 277.25042724609375 285.86749267578125 295.595123291015625 305.144500732421875 315.071319580078125 328.594635009765625 341.076263427734375 350.057098388671875 357.690673828125 362.962432861328125 366.828765869140625 369.278228759765625 372.30780029296875 374.14013671875 370.703094482421875 363.0843505859375 356.154998779296875 350.46575927734375 342.6773681640625 332.63555908203125 323.702056884765625 315.6866455078125 306.392303466796875 296.774200439453125
421.121368408203125 438.760986328125 457.5302734375 483.227874755859375 507.84039306640625 522.73614501953125 527.17291259765625 531.39349365234375 539.77130126953125 545.47052001953125 552.5150146484375 565.43878173828125 568.81884765625 556.57110595703125 531.10882568359375 507.920745849609375 488.23809814453125 470.0931396484375 460.3858642578125 452.773193359375 445.637420654296875 442.273651123046875 439.433135986328125 431.111358642578125 414.8736572265625 398.791656494140625 384.153564453125 371.677459716796875 361.922515869140625 351.249359130859375 342.5123291015625 336.217742919921875 330.5736083984375 324.91571044921875 318.56793212890625 313.77178955078125 312.636688232421875 311.00347900390625 307.710235595703125 303.852630615234375 297.773040771484375 290.893218994140625 281.530792236328125 269.010589599609375 264.6695556640625 266.546966552734375 271.08941650390625 276.78070068359375 286.56756591796875 299.433135986328125 309.9697265625 321.904296875 333.933929443359375 341.947296142578125 348.45709228515625 355.451416015625 360.3084716796875 363.407684326171875 367.32586669921875 369.904571533203125 366.84686279296875 359.531707763671875 350.5118408203125 341.366363525390625 333.371063232421875 325.235260009765625 317.55963134765625 310.53997802734375 304.436553955078125 294.665863037109375
425.335052490234375 447.43597412109375 470.038787841796875 493.358673095703125 517.99114990234375 537.82537841796875 551.42803955078125 555.12872314453125 564.750732421875 573.1480712890625 570.9332275390625 572.3167724609375 561.73406982421875 536.3065185546875 520.027587890625 500.293548583984375 478.843994140625 458.652618408203125 442.798980712890625 434.25604248046875 426.24993896484375 423.899688720703125 424.537384033203125 418.708038330078125 405.892730712890625 392.545928955078125 381.406982421875 368.70867919921875 359.37109375 349.272308349609375 339.34136962890625 329.35894775390625 321.72021484375 314.3255615234375 307.37567138671875 303.903594970703125 303.071319580078125 299.97528076171875 298.67559814453125 296.7645263671875 292.928955078125 286.972991943359375 277.56011962890625 265.15264892578125 259.4635009765625 262.135711669921875 267.032684326171875 271.65545654296875 280.040618896484375 293.285736083984375 302.3642578125 311.323883056640625 322.906005859375 329.199920654296875 334.748321533203125 343.561614990234375 351.655914306640625 357.65753173828125 363.75030517578125 367.058624267578125 363.725494384765625 355.164154052734375 344.34918212890625 333.21295166015625 325.9794921875 318.839691162109375 310.8780517578125 303.369110107421875 297.586669921875 287.720001220703125
424.33587646484375 447.50634765625 473.25262451171875 498.87921142578125 519.95587158203125 546.14007568359375 566.68341064453125 568.55810546875 578.3548583984375 582.46173095703125 584.99334716796875 579.279052734375 551.3162841796875 521.29632568359375 504.168914794921875 486.4083251953125 466.71893310546875 442.77862548828125 425.967132568359375 415.628021240234375 409.488067626953125 406.849822998046875 404.9073486328125 400.566650390625 390.594970703125 381.646240234375 373.458038330078125 363.904510498046875 354.320587158203125 345.17523193359375 334.00225830078125 323.3724365234375 314.65838623046875 307.213165283203125 300.855621337890625 298.11224365234375 294.59130859375 291.263885498046875 290.720062255859375 290.971435546875 288.007537841796875 280.243865966796875 269.86334228515625 259.303802490234375 254.8765716552734375 256.451416015625 261.064453125 265.8392333984375 273.531158447265625 284.2392578125 292.82720947265625 299.9774169921875 309.129638671875 315.80377197265625 323.457977294921875 333.4334716796875 344.3148193359375 353.25677490234375 360.4849853515625 363.167633056640625 359.31329345703125 348.76611328125 337.243804931640625 327.46697998046875 320.300201416015625 312.13177490234375 303.503143310546875 295.974517822265625 289.010833740234375 278.879486083984375
421.05499267578125 440.6959228515625 468.3035888671875 499.670989990234375 523.24017333984375 549.36810302734375 577.021728515625 588.8575439453125 588.70782470703125 585.406005859375 586.1256103515625 572.1168212890625 537.5433349609375 513.38250732421875 490.834869384765625 471.0196533203125 454.6175537109375 434.647430419921875 417.67608642578125 402.765045166015625 396.464813232421875 390.904541015625 385.9031982421875 381.470916748046875 377.66595458984375 371.995269775390625 366.283111572265625 359.63812255859375 349.79083251953125 337.90411376953125 327.439849853515625 318.139923095703125 309.8868408203125 302.875091552734375 297.005035400390625 291.2982177734375 286.245330810546875 282.842864990234375 282.90631103515625 284.426361083984375 282.412445068359375 273.73870849609375 262.94696044921875 255.19061279296875 251.11920166015625 250.3605194091796875 253.442138671875 258.864013671875 266.906097412109375 275.52978515625 283.97845458984375 290.9967041015625 298.03887939453125 306.864105224609375 316.506622314453125 328.801788330078125 342.076385498046875 352.28546142578125 357.086151123046875 357.9873046875 353.3074951171875 343.166229248046875 333.006927490234375 324.25811767578125 314.643890380859375 305.299163818359375 297.18194580078125 290.973297119140625 283.669403076171875 273.927490234375
410.93585205078125 428.391937255859375 451.046722412109375 487.8927001953125 524.14105224609375 551.5098876953125 579.6234130859375 591.58441162109375 589.80401611328125 583.4764404296875 565.9788818359375 543.4847412109375 529.71612548828125 506.1851806640625 481.92657470703125 457.341217041015625 443.028411865234375 430.277801513671875 412.5516357421875 396.908203125 387.102508544921875 377.96502685546875 372.339996337890625 370.377410888671875 368.578216552734375 364.640869140625 360.19512939453125 353.947296142578125 343.558563232421875 331.5445556640625 320.296112060546875 313.422454833984375 305.2044677734375 297.9522705078125 290.9290771484375 284.58544921875 279.0616455078125 275.6806640625 274.70989990234375 275.9044189453125 276.46630859375 270.348968505859375 258.595550537109375 250.634368896484375 246.603363037109375 245.80255126953125 249.09918212890625 255.3660888671875 262.90228271484375 269.79156494140625 277.0750732421875 284.84710693359375 293.353973388671875 302.65728759765625 312.297607421875 325.754119873046875 341.863677978515625 352.4676513671875 355.2291259765625 354.927001953125 351.271240234375 344.073577880859375 334.58868408203125 324.186767578125 313.12298583984375 302.288177490234375 295.545501708984375 290.238037109375 283.46893310546875 275.28399658203125
401.139892578125 418.19970703125 436.481689453125 457.808258056640625 493.968597412109375 531.5826416015625 556.9818115234375 570.82769775390625 574.5921630859375 568.0823974609375 549.47052001953125 529.06695556640625 518.17242431640625 502.05108642578125 476.116455078125 448.728668212890625 429.743896484375 416.129058837890625 404.009246826171875 392.794952392578125 380.40283203125 370.463623046875 363.018524169921875 361.1322021484375 359.91033935546875 357.366119384765625 353.192138671875 347.9619140625 338.4329833984375 325.133514404296875 314.643707275390625 308.6270751953125 300.473876953125 292.343109130859375 284.993133544921875 278.00457763671875 273.205535888671875 270.3514404296875 268.85107421875 270.272979736328125 270.906402587890625 264.15234375 253.4181976318359375 246.0453338623046875 242.0038299560546875 242.4506072998046875 247.7790374755859375 254.4843292236328125 261.0526123046875 266.72540283203125 273.501495361328125 281.981964111328125 291.328765869140625 300.628143310546875 310.480712890625 323.3294677734375 338.90643310546875 350.061279296875 353.782470703125 353.742431640625 352.53857421875 347.213409423828125 337.605804443359375 326.456268310546875 314.91766357421875 305.779510498046875 300.07586669921875 294.8140869140625 288.992218017578125 283.248626708984375
394.43182373046875 411.27618408203125 428.970428466796875 447.897430419921875 481.927978515625 515.6719970703125 538.68511962890625 553.02850341796875 552.35333251953125 544.6871337890625 529.85791015625 514.6622314453125 503.079315185546875 488.883544921875 467.213714599609375 443.966796875 427.10760498046875 412.49603271484375 398.571441650390625 387.3201904296875 376.618499755859375 365.66387939453125 354.55615234375 351.416717529296875 350.16424560546875 347.646148681640625 343.49859619140625 339.502838134765625 330.43096923828125 318.737274169921875 307.828704833984375 301.37347412109375 293.372161865234375 285.7967529296875 278.209197998046875 270.9691162109375 266.794219970703125 263.49462890625 262.588714599609375 263.221771240234375 261.155487060546875 255.2236175537109375 248.8949432373046875 243.9850311279296875 240.5864105224609375 240.770660400390625 246.460113525390625 253.2390594482421875 258.5196533203125 263.755462646484375 272.06060791015625 280.7093505859375 288.444183349609375 297.68145751953125 307.684234619140625 320.585052490234375 333.378662109375 344.520782470703125 349.807525634765625 352.844085693359375 354.553192138671875 350.22406005859375 341.50689697265625 330.711395263671875 320.587127685546875 313.402618408203125 307.61956787109375 302.234588623046875 296.849609375 292.878692626953125
399.332489013671875 416.89874267578125 431.250579833984375 448.176544189453125 477.66265869140625 499.09722900390625 519.20526123046875 538.95330810546875 538.34173583984375 525.63726806640625 511.33514404296875 499.440521240234375 488.6131591796875 478.78265380859375 464.023895263671875 445.89691162109375 429.148773193359375 413.87579345703125 398.639556884765625 383.9501953125 373.6417236328125 361.440521240234375 348.087646484375 342.773040771484375 339.9114990234375 337.631317138671875 333.806793212890625 325.103363037109375 315.462188720703125 307.423736572265625 300.63330078125 293.43304443359375 287.34136962890625 280.57122802734375 271.385772705078125 263.108489990234375 258.84661865234375 256.343780517578125 255.276031494140625 255.6351318359375 253.9962615966796875 250.5371246337890625 246.5517730712890625 242.344970703125 239.06365966796875 238.235870361328125 241.763458251953125 249.5882568359375 255.50762939453125 260.295257568359375 268.539886474609375 276.960174560546875 284.45916748046875 292.808197021484375 301.884552001953125 314.561279296875 326.44073486328125 336.22869873046875 343.738983154296875 351.11175537109375 356.897064208984375 356.09033203125 349.5648193359375 339.794097900390625 332.176422119140625 325.72186279296875 317.9241943359375 312.006805419921875 306.65673828125 303.844451904296875
412.6103515625 427.0118408203125 440.317962646484375 462.445343017578125 482.76593017578125 497.470001220703125 518.9915771484375 533.42999267578125 525.27899169921875 510.97943115234375 494.262603759765625 481.958465576171875 473.81646728515625 468.495849609375 460.141082763671875 446.843719482421875 434.288116455078125 417.292388916015625 399.912506103515625 386.5115966796875 375.167327880859375 360.5283203125 345.157073974609375 335.141571044921875 332.193206787109375 330.835784912109375 324.231842041015625 314.58544921875 304.4130859375 299.17669677734375 294.484100341796875 289.316864013671875 283.9273681640625 276.23895263671875 266.1669921875 258.7637939453125 254.9662322998046875 252.1715850830078125 250.2741241455078125 250.347930908203125 249.9262847900390625 247.8419647216796875 243.2563323974609375 238.2845458984375 234.00543212890625 232.201141357421875 235.560272216796875 243.540740966796875 250.492462158203125 256.362060546875 263.468841552734375 271.3087158203125 279.3946533203125 286.8367919921875 295.5030517578125 307.123016357421875 318.895416259765625 328.25457763671875 337.0025634765625 347.2305908203125 357.63922119140625 362.411651611328125 359.078338623046875 350.7198486328125 343.700469970703125 338.344329833984375 331.50238037109375 325.3284912109375 320.016265869140625 316.0977783203125
418.1697998046875 434.443939208984375 453.168243408203125 472.640777587890625 489.338623046875 506.52191162109375 522.24407958984375 522.23773193359375 511.858917236328125 497.002899169921875 478.139617919921875 464.54498291015625 456.95306396484375 454.203277587890625 451.694244384765625 443.698272705078125 432.3809814453125 418.03411865234375 401.9708251953125 388.704742431640625 374.62164306640625 359.236968994140625 345.456329345703125 335.0709228515625 329.0968017578125 324.201202392578125 317.91680908203125 310.420440673828125 301.47027587890625 294.38385009765625 289.904632568359375 285.127410888671875 279.202545166015625 272.011138916015625 262.3671875 254.3487548828125 250.88641357421875 246.6752166748046875 245.644927978515625 246.3130035400390625 245.7837066650390625 243.4948883056640625 238.6505126953125 233.7063140869140625 230.15911865234375 228.3396759033203125 231.1548309326171875 237.388275146484375 245.1527557373046875 251.745391845703125 257.21923828125 263.8338623046875 272.16058349609375 281.905670166015625 290.7484130859375 300.45062255859375 312.22406005859375 322.264068603515625 331.909149169921875 344.63153076171875 357.915496826171875 366.711151123046875 365.887176513671875 358.7049560546875 352.305419921875 348.76971435546875 344.4468994140625 338.551513671875 332.6632080078125 326.43414306640625
422.411285400390625 442.528533935546875 462.091705322265625 475.546783447265625 491.796417236328125 511.20697021484375 514.0201416015625 502.08526611328125 493.25537109375 480.305267333984375 463.14813232421875 447.0765380859375 436.83929443359375 435.653900146484375 433.40875244140625 428.108245849609375 421.030975341796875 412.67327880859375 400.787445068359375 386.83709716796875 371.476287841796875 357.536834716796875 348.247039794921875 339.36029052734375 330.37481689453125 321.38934326171875 314.030181884765625 307.368133544921875 298.7225341796875 291.33624267578125 285.08294677734375 280.648284912109375 275.78619384765625 268.12677001953125 258.221923828125 251.222015380859375 246.4688568115234375 241.91387939453125 241.3890838623046875 241.161712646484375 239.8846893310546875 236.63568115234375 232.954132080078125 230.0192108154296875 227.2272796630859375 224.4661407470703125 225.9905548095703125 233.91851806640625 241.8827972412109375 247.518402099609375 251.971832275390625 257.72314453125 266.727203369140625 278.618316650390625 287.6148681640625 297.168853759765625 308.0791015625 318.507659912109375 330.979827880859375 344.77276611328125 358.4383544921875 368.016510009765625 369.733123779296875 365.76556396484375 360.800628662109375 358.645751953125 354.0491943359375 348.445770263671875 341.77423095703125 334.500274658203125
424.49951171875 446.297454833984375 464.265411376953125 475.280548095703125 489.274871826171875 499.607177734375 491.76812744140625 479.9478759765625 472.626739501953125 462.142425537109375 449.46563720703125 434.041168212890625 420.45330810546875 414.9072265625 412.42681884765625 408.103851318359375 405.36517333984375 402.214141845703125 393.025848388671875 379.993438720703125 365.58306884765625 354.14227294921875 346.2774658203125 338.787353515625 331.04010009765625 321.1572265625 312.979461669921875 304.924835205078125 295.9136962890625 285.867889404296875 280.4730224609375 277.10723876953125 272.12457275390625 263.37347412109375 254.0902862548828125 248.0924072265625 242.7789154052734375 237.254364013671875 235.489654541015625 233.988311767578125 231.67413330078125 229.470916748046875 227.33258056640625 225.8304290771484375 223.961395263671875 219.947357177734375 220.5608978271484375 231.7463531494140625 238.733795166015625 243.509124755859375 248.8854522705078125 255.834228515625 265.77166748046875 276.895263671875 286.39215087890625 296.174468994140625 306.316436767578125 317.110626220703125 330.631378173828125 344.289031982421875 358.573822021484375 368.64202880859375 373.15118408203125 372.5264892578125 369.16748046875 366.901580810546875 362.204620361328125 356.69287109375 350.33441162109375 344.168212890625
420.003143310546875 444.952117919921875 462.91943359375 474.48974609375 483.579254150390625 481.51763916015625 470.457855224609375 460.632659912109375 453.49188232421875 447.721954345703125 438.09136962890625 423.21746826171875 407.0377197265625 397.92706298828125 393.6126708984375 390.63043212890625 389.19915771484375 387.201141357421875 380.5423583984375 371.749176025390625 361.491302490234375 351.722015380859375 342.391876220703125 334.094482421875 326.366668701171875 317.346893310546875 308.181915283203125 298.699493408203125 291.133270263671875 282.55084228515625 273.942474365234375 271.040374755859375 266.172119140625 259.0975341796875 251.44793701171875 245.5293426513671875 238.4637908935546875 234.149139404296875 230.6145477294921875 228.0839996337890625 225.3157958984375 223.56414794921875 222.3138885498046875 221.478515625 219.4739227294921875 215.6220703125 219.9581451416015625 229.9600372314453125 236.1809234619140625 240.41845703125 247.9019012451171875 256.167572021484375 264.8541259765625 274.949005126953125 285.14508056640625 295.8585205078125 305.548065185546875 316.113372802734375 328.584625244140625 343.669036865234375 359.7373046875 372.310302734375 378.76708984375 379.64593505859375 378.1668701171875 377.190093994140625 371.958587646484375 365.5218505859375 360.048187255859375 356.7587890625
417.11151123046875 440.13043212890625 458.370330810546875 470.293609619140625 474.62628173828125 466.070465087890625 454.232818603515625 444.259613037109375 438.5792236328125 434.74139404296875 426.0322265625 413.449005126953125 399.1793212890625 388.068389892578125 380.00628662109375 374.222564697265625 370.848663330078125 369.490631103515625 366.78680419921875 362.58221435546875 356.59637451171875 344.824920654296875 334.660858154296875 327.05865478515625 319.42816162109375 310.555572509765625 300.483001708984375 291.578369140625 284.60723876953125 275.5372314453125 268.82513427734375 264.961822509765625 259.06951904296875 252.8451995849609375 248.3485870361328125 243.643280029296875 237.3570098876953125 231.5150146484375 226.8117218017578125 224.2515869140625 220.5154266357421875 216.659942626953125 215.2031707763671875 213.3849334716796875 211.1662750244140625 213.314239501953125 220.01275634765625 229.466949462890625 235.019439697265625 242.981842041015625 250.81011962890625 258.469818115234375 265.610504150390625 274.09405517578125 284.943603515625 296.516815185546875 306.286346435546875 317.42437744140625 329.921966552734375 346.326812744140625 363.3521728515625 376.384246826171875 385.893646240234375 390.7979736328125 390.6417236328125 390.039093017578125 383.6685791015625 376.847991943359375 371.684783935546875 368.432159423828125
418.51690673828125 437.8060302734375 455.32470703125 464.196502685546875 463.2291259765625 452.25592041015625 439.837127685546875 429.967742919921875 424.3826904296875 420.082275390625 412.513702392578125 404.9833984375 394.83050537109375 382.96258544921875 371.775299072265625 361.731719970703125 357.278533935546875 355.726043701171875 353.304107666015625 349.90850830078125 342.0540771484375 330.18792724609375 321.472900390625 317.2576904296875 310.542236328125 301.1903076171875 290.778900146484375 280.935333251953125 274.23388671875 268.747711181640625 263.814697265625 259.411224365234375 254.14764404296875 247.9740142822265625 244.0998687744140625 240.4763031005859375 235.25396728515625 227.17840576171875 223.041290283203125 221.15155029296875 215.488006591796875 208.2274017333984375 204.7373504638671875 204.4304656982421875 207.1291961669921875 212.923492431640625 222.1182403564453125 229.7183685302734375 237.7327880859375 248.9677734375 258.1171875 262.25762939453125 266.710906982421875 275.727264404296875 288.204864501953125 299.945892333984375 308.855438232421875 320.681884765625 335.442840576171875 352.256011962890625 367.08795166015625 379.34173583984375 391.68951416015625 401.74853515625 405.28973388671875 404.094818115234375 397.76300048828125 390.810760498046875 384.573822021484375 377.209136962890625
420.3861083984375 438.4034423828125 452.8338623046875 458.5921630859375 451.362091064453125 439.352935791015625 426.987762451171875 415.84381103515625 407.847930908203125 403.14288330078125 398.778839111328125 395.213653564453125 389.26068115234375 377.65008544921875 365.116424560546875 352.5538330078125 344.870697021484375 341.7532958984375 339.049346923828125 333.794677734375 325.5662841796875 315.512847900390625 307.91717529296875 303.285919189453125 297.78131103515625 289.187164306640625 281.009765625 273.146392822265625 266.943145751953125 261.270477294921875 257.37762451171875 253.640228271484375 249.1023406982421875 244.0736083984375 239.6929168701171875 236.331268310546875 230.759735107421875 224.8702392578125 219.21258544921875 215.9655609130859375 209.320465087890625 202.7032012939453125 199.0052337646484375 201.8943939208984375 208.140228271484375 215.5589752197265625 222.445037841796875 230.8070831298828125 241.7493896484375 254.15570068359375 261.72894287109375 263.630706787109375 267.526458740234375 277.984039306640625 290.879302978515625 302.286041259765625 310.544342041015625 323.74908447265625 338.684814453125 352.48065185546875 365.3446044921875 378.181121826171875 391.89453125 403.775787353515625 414.267822265625 416.849395751953125 413.38824462890625 405.255279541015625 395.888702392578125 384.21417236328125
420.429473876953125 436.667388916015625 448.159912109375 451.099578857421875 441.0565185546875 427.708648681640625 414.51123046875 402.46240234375 392.3939208984375 387.073944091796875 384.544647216796875 384.744659423828125 381.047515869140625 371.7313232421875 358.85888671875 346.913726806640625 337.2847900390625 329.335601806640625 323.986297607421875 319.5897216796875 312.742584228515625 304.28057861328125 298.128387451171875 292.191162109375 284.998687744140625 277.453521728515625 272.993927001953125 267.1319580078125 259.669891357421875 253.5461883544921875 248.9247894287109375 245.4856719970703125 241.9434967041015625 237.5893707275390625 233.588470458984375 230.632080078125 227.090667724609375 222.8099822998046875 218.03509521484375 213.4132232666015625 208.137054443359375 201.5474700927734375 199 202.36236572265625 210.2348785400390625 218.304351806640625 224.3534088134765625 231.8912811279296875 244.1229248046875 254.9315338134765625 260.973785400390625 264.239837646484375 270.48724365234375 281.42913818359375 292.87542724609375 302.889892578125 311.591064453125 325.742828369140625 338.7930908203125 349.77960205078125 361.562347412109375 373.5980224609375 386.762786865234375 401.006439208984375 415.08001708984375 423.380401611328125 422.974822998046875 417.714447021484375 406.37353515625 391.66387939453125
416.036102294921875 430.62310791015625 441.4046630859375 441.654052734375 431.775482177734375 417.3817138671875 403.55474853515625 391.509246826171875 380.67083740234375 372.539459228515625 369.683746337890625 370.85687255859375 370.39056396484375 364.134002685546875 354.004150390625 343.559356689453125 332.06610107421875 319.67694091796875 312.10089111328125 307.612152099609375 301.825103759765625 294.475799560546875 288.06976318359375 279.760284423828125 272.727752685546875 267.39306640625 263.82855224609375 258.563201904296875 251.87158203125 245.85260009765625 240.801116943359375 236.35528564453125 234.231201171875 230.716827392578125 227.2582855224609375 225.0478973388671875 223.0005950927734375 219.8304901123046875 216.20880126953125 212.4197540283203125 207.4870758056640625 201.2353668212890625 198.030059814453125 200.7770843505859375 208.1859588623046875 218.4046630859375 225.9799041748046875 234.0941009521484375 243.4950408935546875 253.2295074462890625 258.664520263671875 261.88525390625 268.409912109375 280.14251708984375 292.62591552734375 301.87396240234375 312.330230712890625 325.0718994140625 337.0308837890625 347.027313232421875 357.928192138671875 369.37847900390625 381.453277587890625 396.900238037109375 416.854400634765625 428.22930908203125 429.354583740234375 426.0341796875 416.62945556640625 402.955352783203125
408.9932861328125 422.339996337890625 432.23663330078125 431.753021240234375 423.7381591796875 410.054962158203125 395.38037109375 381.931427001953125 369.696380615234375 358.719879150390625 354.18536376953125 353.926544189453125 356.626220703125 354.614349365234375 347.855987548828125 338.7838134765625 328.098236083984375 315.41046142578125 306.0511474609375 299.627960205078125 292.1387939453125 283.259613037109375 274.45733642578125 267.41558837890625 262.257354736328125 258.052032470703125 254.61871337890625 249.7280426025390625 244.55572509765625 239.598876953125 233.101470947265625 227.769378662109375 224.81109619140625 223.082855224609375 220.56610107421875 219.2440338134765625 217.9791259765625 215.8778076171875 213.445343017578125 211.7664794921875 208.4407958984375 201.2546234130859375 194.8636322021484375 195.9031982421875 203.8441314697265625 213.669342041015625 222.6468963623046875 229.8602294921875 236.3624267578125 245.571502685546875 252.127227783203125 255.4927978515625 260.9349365234375 272.037109375 285.871856689453125 299.490631103515625 309.42071533203125 322.840850830078125 334.96099853515625 346.960174560546875 357.833648681640625 366.693267822265625 377.9381103515625 396.45135498046875 415.76904296875 431.2899169921875 435.877166748046875 436.350311279296875 430.32720947265625 416.584930419921875
402.528106689453125 415.114654541015625 423.49603271484375 422.948089599609375 417.4398193359375 404.990447998046875 387.45391845703125 373.492706298828125 359.979034423828125 347.387542724609375 340.478363037109375 337.7808837890625 340.1781005859375 341.78680419921875 338.61865234375 332.411956787109375 325.01617431640625 314.547698974609375 305.132476806640625 296.659637451171875 286.782867431640625 275.6671142578125 265.821197509765625 259.548248291015625 254.3204193115234375 249.89324951171875 245.6651458740234375 240.7868804931640625 236.7777099609375 233.0203857421875 227.5413360595703125 220.50732421875 216.402679443359375 215.177215576171875 214.1770172119140625 213.910797119140625 213.08209228515625 211.126495361328125 210.382415771484375 209.21441650390625 207.0182342529296875 200.446563720703125 193.4044342041015625 192.784637451171875 199.2357940673828125 208.002227783203125 215.9253082275390625 221.1750030517578125 228.1498565673828125 236.5003509521484375 244.904205322265625 248.1844329833984375 253.662628173828125 262.643585205078125 276.843109130859375 293.07696533203125 306.545562744140625 320.232635498046875 332.647369384765625 344.6751708984375 357.37005615234375 367.30438232421875 380.1519775390625 396.516326904296875 414.111236572265625 429.334716796875 441.633270263671875 446.45880126953125 442.477142333984375 430.11639404296875
396.00738525390625 407.741424560546875 415.3502197265625 416.43743896484375 411.533111572265625 398.373199462890625 380.000091552734375 366.95953369140625 353.75128173828125 340.21661376953125 329.9285888671875 324.9859619140625 324.865509033203125 327.20880126953125 327.604248046875 325.327667236328125 320.366424560546875 312.55535888671875 303.90142822265625 295.388885498046875 286.012542724609375 273.853851318359375 262.916168212890625 254.983551025390625 249.1974639892578125 242.8909912109375 236.517333984375 231.746337890625 228.24481201171875 226.062530517578125 220.69378662109375 214.6105804443359375 210.631256103515625 209.229217529296875 208.643524169921875 208.1660919189453125 207.9662933349609375 206.9305419921875 205.878204345703125 205.355010986328125 202.7448272705078125 197.771697998046875 192.4453582763671875 191.6316375732421875 196.8383026123046875 204.2024078369140625 210.3365631103515625 215.1569366455078125 222.32281494140625 230.5635223388671875 237.085235595703125 243.1638031005859375 250.2771759033203125 260.334442138671875 273.3909912109375 287.500579833984375 299.8525390625 312.412445068359375 324.232269287109375 339.30352783203125 355.478607177734375 369.40594482421875 381.476226806640625 396.785125732421875 411.908203125 428.712432861328125 444.52398681640625 453.628326416015625 451.801513671875 440.5704345703125
388.487518310546875 398.9759521484375 406.429412841796875 409.0028076171875 404.6822509765625 390.850494384765625 375.409271240234375 362.04656982421875 347.743377685546875 333.553985595703125 321.644622802734375 314.672454833984375 311.779541015625 311.709259033203125 313.444732666015625 313.502410888671875 310.678558349609375 305.173187255859375 297.9688720703125 290.663665771484375 283.20654296875 272.1533203125 260.007568359375 250.981201171875 244.8414459228515625 238.1585540771484375 230.242706298828125 224.0670318603515625 220.205657958984375 217.91302490234375 213.851348876953125 209.5937957763671875 205.715240478515625 203.357208251953125 201.748077392578125 201.9898681640625 202.2448577880859375 201.39886474609375 199.5018310546875 198.1719512939453125 195.072906494140625 189.4439849853515625 188.5940704345703125 193.69921875 199.61846923828125 204.6883544921875 209.2290191650390625 212.1172332763671875 217.264923095703125 225.5977630615234375 232.4325103759765625 240.8511199951171875 251.1896209716796875 261.572967529296875 272.189910888671875 284.129302978515625 298.745086669921875 310.198822021484375 322.96844482421875 338.8734130859375 356.1953125 371.370758056640625 383.249176025390625 395.86456298828125 411.720550537109375 429.983062744140625 447.257415771484375 459.129852294921875 459.491546630859375 448.143157958984375
378.453948974609375 389.031982421875 397.69525146484375 399.740020751953125 395.912994384765625 385.882598876953125 372.4434814453125 357.5523681640625 340.531005859375 326.04608154296875 314.761627197265625 305.533294677734375 299.7232666015625 295.915985107421875 296.720489501953125 298.764617919921875 298.658172607421875 295.35858154296875 289.391082763671875 282.696563720703125 275.539459228515625 265.957366943359375 255.2244720458984375 247.060699462890625 240.5628814697265625 233.1559906005859375 225.547821044921875 220.248443603515625 215.4648895263671875 212.61083984375 209.1982879638671875 205.600830078125 201.7142181396484375 197.512054443359375 195.5484466552734375 195.6121368408203125 195.6316680908203125 193.6033477783203125 190.4830780029296875 189.5798797607421875 186.7910614013671875 184.271453857421875 186.4119873046875 195.1732635498046875 203.0289306640625 208.24285888671875 214.0692901611328125 216.49432373046875 222.0841522216796875 229.416168212890625 238.138153076171875 247.763458251953125 258.316192626953125 265.926239013671875 274.988128662109375 290.826995849609375 308.10699462890625 319.6578369140625 330.15130615234375 343.16943359375 357.50433349609375 370.517303466796875 382.447784423828125 396.333984375 413.229156494140625 429.879150390625 447.293243408203125 461.037750244140625 464.7838134765625 456.48968505859375
367.289215087890625 378.510711669921875 388.347076416015625 391.51129150390625 388.53302001953125 381.07171630859375 368.29376220703125 351.952545166015625 335.056793212890625 321.07708740234375 308.909942626953125 298.383636474609375 290.130340576171875 283.858795166015625 283.1160888671875 286.367279052734375 288.00177001953125 287.190155029296875 282.561126708984375 275.37139892578125 267.1529541015625 258.523590087890625 250.3449249267578125 244.0965118408203125 238.18084716796875 230.139923095703125 223.2555389404296875 218.459381103515625 212.621307373046875 208.8541107177734375 205.98779296875 202.360687255859375 198.11065673828125 194.0667572021484375 191.263946533203125 189.6272125244140625 190.0333404541015625 186.3062591552734375 182.340850830078125 181.9886627197265625 184.2640533447265625 184.33966064453125 188.670684814453125 197.324493408203125 205.473724365234375 213.238037109375 221.9855804443359375 229.3681182861328125 234.6593780517578125 239.017669677734375 244.908477783203125 251.8818817138671875 260.344970703125 267.476837158203125 280.81298828125 303.016021728515625 322.36224365234375 335.52783203125 342.81219482421875 352.035552978515625 362.570037841796875 373.086517333984375 384.78790283203125 398.684539794921875 414.412200927734375 430.688232421875 448.115081787109375 464.05560302734375 469.752960205078125 467.362579345703125
354.997344970703125 365.084625244140625 375.67315673828125 382.857879638671875 381.3905029296875 373.011932373046875 361.410247802734375 346.350006103515625 332.02349853515625 318.486541748046875 304.87542724609375 293.857147216796875 285.06707763671875 277.580596923828125 274.612518310546875 275.938812255859375 278.055572509765625 279.673248291015625 277.459869384765625 270.787322998046875 262.127899169921875 254.4474334716796875 247.432342529296875 242.785888671875 238.4720306396484375 230.777099609375 223.7968292236328125 218.1489715576171875 211.2796630859375 206.9402008056640625 203.1781463623046875 198.979583740234375 195.8405914306640625 192.396881103515625 188.8491363525390625 185.4557647705078125 183.6916656494140625 179.842193603515625 176.679779052734375 179.4242401123046875 185.4211883544921875 188.8473052978515625 192.141204833984375 200.524810791015625 208.34027099609375 218.8501739501953125 229.5443878173828125 235.6010284423828125 240.3189697265625 243.1324005126953125 247.222137451171875 253.5400543212890625 261.29132080078125 268.9412841796875 283.9739990234375 305.3511962890625 322.391357421875 335.42352294921875 344.097747802734375 356.928619384765625 371.65325927734375 381.17144775390625 391.275238037109375 404.31109619140625 417.9365234375 433.726959228515625 452.772735595703125 466.5164794921875 474.634552001953125 473.440216064453125
342.202362060546875 351.500762939453125 362.2496337890625 371.67364501953125 372.22454833984375 364.2703857421875 354.44830322265625 341.31170654296875 328.863922119140625 315.6116943359375 302.0694580078125 291.903717041015625 283.33074951171875 273.738067626953125 267.06689453125 266.568450927734375 268.694427490234375 271.18011474609375 270.645172119140625 265.584442138671875 258.8701171875 252.9804229736328125 246.126190185546875 241.2852783203125 237.131317138671875 230.74267578125 224.75201416015625 218.9541473388671875 211.6835479736328125 204.80438232421875 199.2541046142578125 195.154632568359375 192.09222412109375 188.7386932373046875 184.9553375244140625 181.0316314697265625 177.8714752197265625 175.4205169677734375 176.143280029296875 183.202545166015625 190.8562469482421875 195.092376708984375 199.167388916015625 207.2903900146484375 216.8014984130859375 227.5199737548828125 234.98358154296875 238.9680633544921875 245.1347808837890625 249.503082275390625 252.9560699462890625 257.01507568359375 261.813995361328125 269.5994873046875 283.956390380859375 300.761383056640625 316.43023681640625 329.769439697265625 341.666900634765625 356.152801513671875 371.8868408203125 386.38922119140625 397.91448974609375 409.002960205078125 424.021636962890625 440.964569091796875 455.736602783203125 468.5048828125 476.980010986328125 477.289306640625
331.783843994140625 342.688079833984375 352.528045654296875 361.78472900390625 363.927703857421875 356.599090576171875 347.439361572265625 335.68609619140625 322.88604736328125 310.345184326171875 298.734771728515625 289.68951416015625 280.232269287109375 268.3123779296875 260.11541748046875 258.8096923828125 259.866668701171875 261.47503662109375 261.5240478515625 257.891448974609375 252.8661041259765625 248.6177215576171875 242.79779052734375 237.7788238525390625 233.44049072265625 227.6959991455078125 222.3250885009765625 217.344696044921875 210.0992279052734375 201.40875244140625 196.1724853515625 192.1876678466796875 186.5063323974609375 182.4497222900390625 178.7489166259765625 175.210113525390625 171.921142578125 173.5866546630859375 180.99237060546875 191.40667724609375 198.192169189453125 202.701812744140625 210.6687164306640625 219.884735107421875 228.2845611572265625 235.4064178466796875 240.074554443359375 244.1471405029296875 251.5697784423828125 258.0772705078125 261.740875244140625 263.33477783203125 266.940887451171875 275.680328369140625 288.25701904296875 302.482513427734375 313.79925537109375 329.326568603515625 344.41265869140625 359.771575927734375 374.09368896484375 387.18194580078125 400.857269287109375 414.7342529296875 431.342376708984375 449.10552978515625 464.24786376953125 472.370574951171875 477.32843017578125 476.75341796875
324.8756103515625 335.658935546875 346.844482421875 355.1846923828125 354.749786376953125 347.735198974609375 337.9879150390625 327.673675537109375 315.73028564453125 304.7840576171875 294.258880615234375 283.08660888671875 273.6494140625 262.508331298828125 255.7301025390625 252.9239501953125 251.3580169677734375 251.6630096435546875 251.628936767578125 248.685638427734375 243.73773193359375 240.319580078125 237.432769775390625 233.0458526611328125 228.9762420654296875 222.68316650390625 216.494384765625 211.778350830078125 205.1854400634765625 198.213470458984375 194.1795654296875 188.5630340576171875 181.8018951416015625 176.808685302734375 171.1483612060546875 167.35821533203125 166.6044769287109375 173.4870452880859375 186.36138916015625 196.963287353515625 203.268096923828125 209.5384521484375 221.0750579833984375 230.8791351318359375 235.884246826171875 240.3853607177734375 245.8425445556640625 252.577911376953125 261.333251953125 268.427886962890625 272.609283447265625 275.662689208984375 281.740692138671875 293.512359619140625 304.044036865234375 312.0714111328125 322.233795166015625 333.814910888671875 349.316925048828125 365.771270751953125 379.083282470703125 392.3065185546875 404.476837158203125 418.779144287109375 434.542144775390625 451.643096923828125 463.557373046875 474.759613037109375 477.59368896484375 476.071441650390625
320.7626953125 330.297454833984375 340.487335205078125 347.9359130859375 345.74530029296875 336.799957275390625 328.020416259765625 318.464691162109375 306.80706787109375 296.442413330078125 285.994171142578125 274.13946533203125 265.962615966796875 256.795257568359375 251.2768402099609375 248.1357269287109375 244.339691162109375 243.03131103515625 241.9586181640625 239.3351593017578125 235.1456146240234375 232.7011566162109375 232.065826416015625 227.680572509765625 223.3610687255859375 217.2110137939453125 210.2551422119140625 204.7295684814453125 198.931915283203125 194.204010009765625 191.6364898681640625 185.556304931640625 178.85784912109375 172.6309967041015625 165.9168701171875 162.5133056640625 164.6108551025390625 174.5694122314453125 188.702911376953125 199.3829803466796875 205.9486236572265625 213.9549560546875 225.196044921875 234.226531982421875 240.0435333251953125 245.933135986328125 252.38671875 259.255950927734375 267.583587646484375 279.91400146484375 285.522705078125 291.619873046875 298.716339111328125 306.938568115234375 313.71490478515625 322.6053466796875 333.5601806640625 345.399139404296875 360.264312744140625 372.63470458984375 386.5670166015625 398.5755615234375 409.698333740234375 423.169464111328125 437.543426513671875 448.63458251953125 461.40618896484375 474.17950439453125 474.662872314453125 473.096954345703125
318.368865966796875 327.234161376953125 334.451416015625 339.244873046875 335.69873046875 327.51116943359375 319.144683837890625 308.77752685546875 296.279754638671875 286.918243408203125 276.775726318359375 267.482086181640625 259.18060302734375 249.8935546875 246.73553466796875 243.1612091064453125 238.4028167724609375 235.6751556396484375 234.120819091796875 232.48736572265625 229.3272552490234375 227.904510498046875 227.149505615234375 223.062347412109375 218.4069061279296875 212.23199462890625 204.73565673828125 198.3807525634765625 193.137939453125 190.0040435791015625 189.0503997802734375 184.7152099609375 177.7867889404296875 170.47161865234375 164.1324005126953125 162.220855712890625 165.029876708984375 176.051605224609375 189.736053466796875 201.57684326171875 209.6227264404296875 217.2554473876953125 225.9854736328125 234.5326080322265625 243.3799896240234375 251.062652587890625 257.215118408203125 262.484649658203125 272.6903076171875 287.206512451171875 301.0697021484375 309.41033935546875 314.790130615234375 319.05963134765625 324.5045166015625 332.8348388671875 346.15924072265625 360.743804931640625 371.70751953125 381.9583740234375 392.412445068359375 402.557769775390625 413.55474853515625 425.76739501953125 437.321258544921875 448.288177490234375 460.842529296875 470.269500732421875 470.2601318359375 467.275543212890625
314.0941162109375 324.97711181640625 332.207763671875 334.30267333984375 328.29736328125 319.483154296875 310.084991455078125 300.51092529296875 288.74822998046875 279.330169677734375 270.87713623046875 261.700469970703125 252.0391082763671875 244.24822998046875 241.291900634765625 237.9837493896484375 232.6093597412109375 229.3419342041015625 227.9631500244140625 226.7487945556640625 225.277191162109375 225.180450439453125 223.7992401123046875 220.311737060546875 216.1910400390625 209.42352294921875 201.0663909912109375 194.18914794921875 189.8182373046875 187.4414520263671875 187.025970458984375 182.875885009765625 176.2528533935546875 168.6777496337890625 163.0218658447265625 162.2156219482421875 167.1217041015625 178.0983734130859375 191.236907958984375 204.595855712890625 213.6587066650390625 220.72882080078125 227.94171142578125 236.6842498779296875 247.6465301513671875 256.533843994140625 262.04681396484375 267.682647705078125 277.00225830078125 292.96307373046875 306.126708984375 317.478271484375 324.936920166015625 330.03704833984375 338.8885498046875 351.76544189453125 361.641326904296875 370.14764404296875 379.485809326171875 387.1475830078125 396.419708251953125 406.71661376953125 416.341888427734375 426.7347412109375 438.096221923828125 447.57171630859375 459.44879150390625 464.9652099609375 461.328277587890625 454.29351806640625
312.158355712890625 323.04278564453125 330.738677978515625 331.1322021484375 325.213897705078125 314.89947509765625 304.399261474609375 295.39654541015625 283.276611328125 272.504119873046875 264.059356689453125 255.0513763427734375 246.06805419921875 240.4566192626953125 237.09857177734375 232.4451446533203125 227.197418212890625 224.568603515625 222.7371673583984375 221.9002227783203125 222.2269439697265625 222.5435791015625 219.65087890625 216.17449951171875 213.6777801513671875 207.59521484375 198.7695465087890625 192.237884521484375 187.977447509765625 184.559295654296875 182.1802978515625 177.265228271484375 171.14178466796875 164.590179443359375 159.9153900146484375 160.969085693359375 169.6182708740234375 182.2009735107421875 194.0298309326171875 206.19268798828125 216.204254150390625 223.879852294921875 230.9468841552734375 240.0079803466796875 250.1970977783203125 258.41241455078125 265.424102783203125 272.785858154296875 281.9884033203125 295.88665771484375 307.54510498046875 318.679443359375 328.136260986328125 337.294830322265625 350.261444091796875 363.608673095703125 369.92657470703125 374.80487060546875 380.52069091796875 386.942535400390625 397.087158203125 411.10272216796875 425.25604248046875 438.055389404296875 446.45135498046875 451.726593017578125 455.980438232421875 454.949005126953125 448.193359375 441.01373291015625
